# .PCD v0.7 - Point Cloud Data file format
VERSION 0.7
FIELDS x y z rgb
SIZE 4 4 4 4
TYPE F F F F
COUNT 1 1 1 1
WIDTH 910
HEIGHT 1
VIEWPOINT 0 0 0 1 0 0 0
POINTS 910
DATA ascii
-4.829306261 1.088211857 10.89987519 3.13934016e-39
-4.852615963 1.085621941 10.85908314 3.505960476e-39
-4.888356092 1.090151011 10.89329047 4.519015188e-39
-4.924460786 1.089969988 10.87956332 5.160793069e-39
-4.97726782 1.095378078 10.90488422 4.883841842e-39
-5.022925744 1.088123644 10.81832374 7.736130215e-39
-5.046235578 1.084533864 10.77754745 5.71215637e-39
-5.100050664 1.088927997 10.8018904 2.12338476e-39
-5.121049832 1.089943164 10.8020336 1.667092553e-39
-5.146321179 1.087428672 10.76625697 1.753890381e-39
-5.229362344 1.090399971 10.76083733 4.15097956e-39
-5.312712901 1.102718171 10.84629477 1.057152874e-38
-5.323220207 1.096734247 10.77945384 9.926152323e-39
-5.391163993 1.099886945 10.78692005 1.149024243e-38
-5.401663769 1.093917815 10.72107844 1.277449744e-38
-5.401331775 1.084615386 10.63320121 5.335101986e-39
-5.433489133 1.084327833 10.61244496 1.475858753e-39
-5.505060279 1.093208268 10.66886025 8.297732805e-40
-5.490910307 1.081540643 10.5569114 1.01415333e-39
-5.595994401 1.098392395 10.67747015 1.382572913e-39
-5.577579927 1.089239742 10.60045565 1.290737417e-39
-5.515138993 1.065160914 10.39531343 1.106709093e-39
-5.416193422 1.033093791 10.12500587 1.199624991e-39
-2.077354348 0.2191704009 3.657007249 1.843551062e-39
-2.089300736 0.220282647 3.664081732 1.750279235e-39
-2.087551163 0.2167930321 3.631115664 1.201058519e-39
-2.081839664 0.2132265058 3.593120079 1.291456283e-39
-2.097838384 0.2142380321 3.593225651 1.749909292e-39
-2.088188315 0.2085503906 3.54723079 1.106703488e-39
-2.101225622 0.2084858449 3.542329413 1.382933047e-39
-2.111300664 0.2083451009 3.53240604 6.46819753e-40
-2.103513792 0.2049251432 3.504394017 1.473682536e-39
-2.102733605 0.2024953578 3.475420065 3.590570877e-39
-2.122679659 0.203613432 3.482554975 5.249020221e-39
-2.12287677 0.2012287825 3.456588153 6.53543183e-39
-2.124066247 0.1988596624 3.431628643 8.740212413e-39
-2.13314139 0.1987181903 3.421697746 1.020921882e-38
-2.145193628 0.1986233101 3.414789027 1.232071636e-38
-2.137391687 0.1952329588 3.388776822 1.140163973e-38
-2.14450508 0.1940161241 3.37384626 1.222779486e-38
-2.156542488 0.1939508504 3.368937359 1.31479575e-38
-2.154762164 0.1915203369 3.339955881 1.498395416e-38
-2.158906373 0.1892422166 3.321018158 1.305647373e-38
-2.166996683 0.1890704137 3.309080159 1.425033097e-38
-2.168171092 0.1867309149 3.286120467 1.406558799e-38
-2.177254386 0.1855747457 3.275204349 1.406522925e-38
-2.17734479 0.1853971181 3.263206158 1.434073995e-38
-2.178511665 0.1830724058 3.241246256 1.434182735e-38
-2.197472889 0.1841601456 3.246373826 1.507650712e-38
-2.201601415 0.1829115203 3.229420874 1.581082535e-38
-2.197829443 0.1794648571 3.199439368 1.654550792e-38
-2.213820866 0.1804912035 3.200544969 1.728162401e-38
-2.215971957 0.1791967142 3.180577362 1.682244513e-38
-2.220025382 0.1780961324 3.173623262 1.682280667e-38
-2.222176471 0.1768016467 3.153655893 1.645511436e-38
-2.232228912 0.1767053104 3.146732127 1.673062225e-38
-2.223510321 0.1721514975 3.109728804 1.443113351e-38
-2.237524549 0.1731319766 3.107819513 1.443114051e-38
-2.244615339 0.1719595532 3.095888796 1.46148087e-38
-2.248660376 0.1718736499 3.089919676 1.433930081e-38
-2.247834986 0.1695326802 3.066944938 1.516581748e-38
-2.266803745 0.170605615 3.07107248 1.507398058e-38
-2.263008316 0.1682032665 3.044075771 1.424746532e-38
-2.264167897 0.1658933558 3.02311566 1.433893788e-38
-2.26532662 0.1645833407 3.002140978 1.38797604e-38
-2.283287707 0.1656703523 3.007261023 1.360389517e-38
-2.280401633 0.1644462371 2.992255225 1.351134221e-38
-2.288484789 0.1632893432 2.981331821 1.296032924e-38
-2.293589996 0.163085746 2.967371192 1.305252206e-38
-2.305627404 0.1630204723 2.962462291 1.268518288e-38
-2.31568738 0.1629093311 2.954538497 1.277629671e-38
-2.305946288 0.1583992129 2.920527258 1.333161868e-38
-2.314013999 0.1582718143 2.911588628 1.42517673e-38
-2.331906665 0.1604919265 2.925692687 1.406450618e-38
-2.32613404 0.1580437142 2.895681324 1.323762658e-38
-2.325293584 0.1557323473 2.874706165 1.55370929e-38
-2.341292542 0.1567438887 2.874811739 1.332730268e-38
-2.346398364 0.1555404028 2.860866156 1.351060933e-38
-2.35347347 0.1553974745 2.850920211 1.295923903e-38
-2.376403777 0.157547228 2.860062464 1.286704059e-38
-2.364594469 0.1541687509 2.835019955 1.34194913e-38
-2.366722957 0.152918673 2.818052193 1.27773603e-38
-2.375790566 0.1527920024 2.809121086 1.314398902e-38
-2.377919293 0.1515419246 2.792153326 1.296032083e-38
-2.385987382 0.1504146485 2.783229501 1.342021157e-38
-2.40297117 0.1514565094 2.785342416 1.268516887e-38
7.158894835 0.9383788627 8.237409292 5.535368556e-39
7.187577499 0.9486897182 8.3270531 5.444606455e-39
7.204146042 0.9557875764 8.401833339 5.629362052e-39
7.243723076 0.965883189 8.477396377 5.62971658e-39
7.273435773 0.9762525222 8.57103182 5.629360651e-39
7.301125459 0.9855790369 8.661698226 5.260191373e-39
7.332869179 0.9970059967 8.75930297 2.120139353e-39
7.364604277 1.007418285 8.855923213 4.790233703e-39
7.385256524 1.016675882 8.94164286 1.005181657e-38
7.412977429 1.027061465 9.036292659 3.690337723e-39
7.455614433 1.03727326 9.119832398 3.508842947e-39
7.479311576 1.046617481 9.211528213 4.246405183e-39
7.538351378 1.063601534 9.347850911 4.707753275e-39
7.646899114 1.08854099 9.550691483 4.063098528e-39
3.779141953 0.4256470307 4.876997841 4.615200314e-39
3.732035428 0.4214744472 4.86341268 4.986491158e-39
3.708035568 0.4204920436 4.863608058 4.893227739e-39
3.692126399 0.4206813239 4.875726868 5.169095762e-39
3.696436966 0.4242849739 4.916646586 4.893953611e-39
3.494458657 0.4134776493 4.921328643 6.372329096e-39
3.116027665 0.414818652 5.13118901 1.069215812e-38
3.165743679 0.4530801198 5.488297176 2.120861022e-39
3.230186923 0.488797966 5.80932729 2.954577556e-39
3.460074775 0.5781130548 6.582379984 1.08736641e-38
8.791298459 1.930529482 17.49270216 1.658806675e-39
8.727382412 1.929739084 17.50419665 2.766230431e-39
8.658383245 1.926789629 17.50476021 2.488205809e-39
8.587352577 1.922782607 17.50135447 2.672232731e-39
8.524435952 1.921991362 17.51284145 2.398874433e-39
8.486382346 1.91891572 17.50617277 3.777858621e-39
8.423459145 1.91810968 17.51666042 4.235599771e-39
8.359534952 1.91630455 17.52717041 4.516494252e-39
8.297634113 1.914542375 17.54066519 2.582569248e-39
8.238786464 1.914881388 17.5611068 8.560137152e-39
8.19314261 1.917610336 17.60841578 1.031365619e-38
8.129211364 1.915790412 17.61792645 1.280400879e-38
8.101302209 1.915988415 17.63013459 1.299271184e-38
8.044492496 1.916399972 17.65555962 1.538871642e-38
7.999879782 1.920187363 17.70684733 8.118945337e-39
7.970532652 1.928481427 17.79295797 6.455126217e-39
8.030778948 1.961817588 18.08805088 1.410195448e-38
7.957703275 1.957723081 18.0786605 1.455321183e-38
7.877483467 1.9513528 18.05035592 1.668342231e-38
7.82414229 1.944725892 18.00584965 1.668342371e-38
7.722527859 1.932601605 17.92578424 1.539160029e-38
7.64433153 1.927274069 17.90044774 1.50264163e-38
7.572233154 1.923134542 17.88804998 1.686528142e-38
7.503187841 1.920096293 17.88261576 1.520902091e-38
7.424967816 1.913724409 17.85429423 1.576039122e-38
7.354900478 1.910642596 17.84586768 1.686420943e-38
7.314764191 1.90740556 17.82821398 1.585186658e-38
7.245711335 1.904352488 17.82177855 1.585401477e-38
7.174597798 1.900182644 17.80737464 1.741522801e-38
7.10451477 1.896071158 17.79696238 1.658978755e-38
7.044621538 1.896322076 17.81141182 1.677237674e-38
6.974515907 1.892166298 17.7979997 1.69589246e-38
6.906470479 1.889127293 17.79255605 1.732520019e-38
6.869364513 1.885947306 17.77888084 1.806024289e-38
6.801296973 1.882863917 17.77043925 1.925768887e-38
6.736297542 1.880911488 17.77095791 1.90776108e-38
6.668214437 1.877798454 17.76051389 2.055129614e-38
6.598101276 1.873627882 17.74610246 1.962970698e-38
6.539200274 1.872863341 17.75955987 2.128707032e-38
6.469079709 1.869677763 17.74413242 2.11948887e-38
6.430943234 1.866439299 17.72646558 2.027796727e-38
6.369989082 1.864572779 17.73295383 2.082789704e-38
6.300883966 1.861416091 17.71951939 2.03701643e-38
6.235846241 1.858389815 17.71505248 1.908374288e-38
6.164657366 1.854071823 17.69064973 1.926525868e-38
6.098589609 1.85098695 17.68219118 2.03647679e-38
6.057369952 1.84658803 17.65356356 1.954291616e-38
5.995385291 1.844663033 17.65606018 1.916767366e-38
5.930324963 1.841592226 17.64859343 1.862132e-38
5.862173938 1.837346079 17.62916848 1.990486595e-38
5.796076049 1.834202119 17.61671078 1.944136827e-38
5.734100011 1.833291734 17.6201919 1.926272093e-38
5.673100175 1.831336392 17.62068047 1.742097894e-38
5.633911065 1.827995039 17.59602215 1.852553985e-38
5.565752496 1.823734188 17.57559599 1.916514011e-38
5.500646345 1.819574622 17.56214435 1.879814705e-38
5.435556515 1.817444575 17.55066554 1.834188146e-38
5.365322192 1.812037214 17.52027037 1.843046595e-38
5.300231746 1.80890723 17.50880637 1.962792033e-38
5.241254788 1.806994843 17.51227973 1.926165314e-38
5.207149121 1.804812581 17.49856524 1.852877404e-38
5.141028643 1.80162412 17.4831096 2.046058028e-38
5.081013633 1.799638433 17.48159011 1.990595616e-38
5.022059894 1.798770275 17.48804851 2.110664614e-38
4.956917189 1.795536674 17.4695855 2.257494068e-38
4.894871631 1.7924933 17.46409671 2.092442689e-38
4.834865258 1.791522372 17.46356363 2.239663806e-38
4.802804595 1.789427357 17.45583378 2.092583519e-38
4.742798222 1.78845643 17.4553007 2.229907546e-38
4.680723009 1.78535385 17.44581275 2.064928194e-38
4.618640405 1.783236414 17.43531068 2.303877888e-38
4.558625872 1.781250726 17.43379119 2.073785941e-38
4.496528069 1.778103764 17.4213053 2.0278326e-38
4.436499079 1.777088277 17.41777047 1.935817598e-38
4.40030152 1.772730128 17.39210507 2.129353311e-38
4.344386234 1.772933723 17.40352456 2.174950022e-38
4.281257909 1.769728254 17.38704513 2.074109922e-38
4.222266494 1.768786068 17.38850316 2.202571436e-38
4.162183549 1.765667238 17.37800084 2.101300156e-38
4.102131731 1.764607488 17.37146808 2.119775296e-38
4.043124879 1.762635895 17.37094228 2.073785801e-38
4.016201418 1.763803399 17.38112947 1.954616437e-38
3.950974358 1.758407193 17.351696 2.008852293e-38
3.9012562 1.76199099 17.38902332 1.862095986e-38
3.841196475 1.759916509 17.38150605 2.01843269e-38
3.78006088 1.756694762 17.36401035 1.926453421e-38
3.727251156 1.758103371 17.38939238 2.082213631e-38
3.668222303 1.757087157 17.38585002 1.944676467e-38
3.607101557 1.753895055 17.37035676 2.018576323e-38
3.574995703 1.751711365 17.35662913 2.009357041e-38
3.5148983 1.749562855 17.34411148 2.009284453e-38
3.454800281 1.746414408 17.33160863 2.284899683e-38
3.399862068 1.746572892 17.34002266 2.09215248e-38
3.338718943 1.74333635 17.32152765 2.101911963e-38
3.279636514 1.741216729 17.31100301 2.091901788e-38
3.221607335 1.740199815 17.30745504 2.266964183e-38
3.190494088 1.738000602 17.29272057 2.229978171e-38
3.130358154 1.734778127 17.27521734 2.174805127e-38
3.074412497 1.734922516 17.28263768 2.14736378e-38
3.018474385 1.735081728 17.29105924 2.01821647e-38
2.95830041 1.730785435 17.26857235 2.000066432e-38
2.897081722 1.727400894 17.24008039 2.275606692e-38
2.868059526 1.72637766 17.23731355 1.963401457e-38
2.812052988 1.72540382 17.23675037 1.93574417e-38
2.753993046 1.723327854 17.22921614 1.834330098e-38
2.698024786 1.723427832 17.23363663 2.119165451e-38
2.6388664 1.720160245 17.21312795 1.972190261e-38
2.622947306 1.750226403 17.48684076 1.99974049e-38
2.290305342 1.529924979 15.56334248 2.027617781e-38
2.229408163 1.501270082 15.31419105 1.935097891e-38
2.176235198 1.498968342 15.29162284 1.272986048e-38
2.090201303 1.467065515 15.02470676 4.423219622e-39
1.997659691 1.429175838 14.6909187 2.765867495e-39
1.922051088 1.40409405 14.47983057 2.762979418e-39
1.839934151 1.372025474 14.20188528 1.105990227e-39
1.760877422 1.34007314 13.93191668 1.565166307e-39
1.636227623 1.285046532 13.45260421 6.913978597e-39
1.581499744 1.273665921 13.35717209 7.933148575e-39
1.522423008 1.257607671 13.21583516 9.586188907e-39
1.441751709 1.217457857 12.86498858 1.013718647e-38
1.38789454 1.203825118 12.7525807 4.331019788e-39
1.339371788 1.19583937 12.68405477 1.937904692e-39
1.295114408 1.19136862 12.65045029 6.07660047e-39
1.271857063 1.187882383 12.61667205 8.399902877e-39
1.228720856 1.184647559 12.59904283 1.401589794e-38
1.187729549 1.184692205 12.60035062 2.185541175e-38
1.147745798 1.18475093 12.60265115 2.350988562e-38
1.106754499 1.18479559 12.60395989 2.350988562e-38
1.066823424 1.184957933 12.61325943 2.350988562e-38
1.025847191 1.185032195 12.61656775 2.350988562e-38
1.004764338 1.183884844 12.60574239 2.350988562e-38
0.967000827 1.187370948 12.63697878 2.350988562e-38
0.924933554 1.18626849 12.628311 2.350988562e-38
0.8861468718 1.188711107 12.65657083 2.350988562e-38
0.8451405062 1.188726164 12.65588 2.350988562e-38
0.8052019539 1.188873698 12.66417926 2.350988562e-38
0.7853016609 1.191080454 12.67729882 2.350988562e-38
0.7454390645 1.192375953 12.69558213 2.350988562e-38
0.7044703685 1.192465024 12.69989072 2.350988562e-38
0.6646541448 1.195849087 12.72414315 2.350988562e-38
0.6236320962 1.194834604 12.72146754 2.350988562e-38
0.5838002193 1.197189127 12.74373521 2.350988562e-38
0.54393068 1.199469649 12.7610044 2.350988562e-38
0.5239990436 1.199617431 12.77015346 2.350988562e-38
0.48308373 1.200810055 12.78144624 2.350988562e-38
0.4422292688 1.203120909 12.80072253 2.350988562e-38
0.4024507445 1.206578986 12.82997439 2.350988562e-38
0.3603985677 1.20550613 12.82330619 2.001403831e-38
0.3195899592 1.208905624 12.84856737 1.835561839e-38
0.2786972118 1.210142646 12.86285905 1.878772279e-38
0.2586595017 1.209083257 12.85802491 1.878295417e-38
0.2169036263 1.212587201 12.89029166 1.960081221e-38
0.1759656872 1.213735414 12.8985846 6.99709101e-39
0.1350735676 1.215972254 12.91286146 4.417444871e-39
0.06331696202 1.347230181 13.33151696 1.289659818e-39
0.02019641508 1.345024897 13.31587251 1.105990227e-39
-0.02489263679 0.826618576 8.968285486 3.219987689e-39
-0.05384219113 0.8107901895 8.843720696 8.446382546e-40
-0.06761642566 0.7992909045 8.741980409 2.293502814e-38
-0.1229519216 0.7787269572 8.566677859 8.387644318e-39
-0.1495437365 0.7695922137 8.489002625 6.636288886e-39
-0.1751205266 0.7604862853 8.413319447 4.51865085e-39
-0.201719886 0.7513366878 8.334644901 2.677647348e-39
-0.2271905576 0.7434379303 8.272944923 5.16188468e-39
-0.2387677495 0.7343218089 8.197156412 5.345551469e-39
-0.2640325702 0.7308222343 8.162393909 4.977490618e-39
-0.289449919 0.7240269711 8.107678128 4.887091453e-39
-0.3138063901 0.7183492826 8.060939287 4.795973421e-39
-0.3381854871 0.7126271969 8.011201554 7.662654531e-39
-0.3625871646 0.7068606858 7.958463021 7.472531961e-39
-0.3860346994 0.7000047012 7.899733035 8.213738975e-39
-0.5315590814 0.7080280188 7.962719579 4.910515558e-39
-0.558451614 0.7102546654 7.976891115 1.245254351e-38
-0.5696867335 0.706804163 7.946022437 8.212650166e-39
-0.5947468841 0.7057040621 7.938226068 9.133865177e-39
-0.6225483531 0.7091089452 7.96438875 1.696614689e-38
-0.6365729597 0.6153853854 7.17277277 1.382938652e-39
-0.6541041095 0.607362392 7.103014285 1.845362941e-39
-0.6623549769 0.6028801656 7.070138264 2.214506996e-39
-0.6835973341 0.5994220829 7.038345034 4.701623996e-39
-0.7047636795 0.5971119584 7.01653537 4.609069634e-39
-0.7286719599 0.5983069406 7.028699562 5.348791271e-39
-0.9086871134 0.7259741267 8.078310985 7.667421749e-39
-0.8660284065 0.6106496549 7.113563489 2.675116603e-39
-0.8928223838 0.6140686114 7.140718436 3.600314105e-39
-0.9149052584 0.612921922 7.129900127 3.153716081e-39
-1.200049087 0.5998799473 6.980220777 1.936113832e-39
-1.223048431 0.5998966929 6.980393824 1.658805274e-39
-1.247031987 0.6009436539 6.982559644 1.8439154e-39
-1.259016542 0.6009819936 6.984649508 1.751722573e-39
-1.283977636 0.6020740869 6.989822221 2.212690913e-39
-1.495470028 0.5992509916 6.925448472 7.556789235e-39
-1.521385205 0.6014324988 6.936612639 8.296512274e-39
-1.541498236 0.6002251476 6.921780124 7.285623969e-39
-1.550588944 0.5990541918 6.909864215 7.194877282e-39
-1.578451299 0.6013407791 6.928042911 7.748779736e-39
-1.59761025 0.599044007 6.907218465 8.116832179e-39
-1.621616529 0.6000465567 6.906384439 8.116829377e-39
-1.642684259 0.598928742 6.897558185 8.207948809e-39
-1.669576852 0.6011553886 6.911729722 8.209022204e-39
-1.689704949 0.5999184345 6.894897628 8.761115582e-39
-1.697833428 0.5986727365 6.877974771 8.484895833e-39
-1.723771821 0.5998099622 6.886154377 8.392698801e-39
-1.74874033 0.600887254 6.890327299 8.30158077e-39
-1.772716356 0.6019490093 6.893492431 8.577450195e-39
-1.79866228 0.6030715002 6.900672723 8.301229044e-39
-1.823645858 0.6041191822 6.902845589 8.759330328e-39
-1.843751474 0.6029266324 6.889012865 8.484898635e-39
-1.854781214 0.6028754285 6.88509599 8.209392147e-39
-1.880711458 0.6050273329 6.894260578 8.761838652e-39
-1.906657381 0.6061497641 6.90144087 8.486330762e-39
-1.92871698 0.6060473563 6.893607123 9.039143006e-39
-1.958571221 0.6093501382 6.912785847 8.762209996e-39
-1.983547143 0.6104126286 6.915958979 8.945513848e-39
-2.008538374 0.6114455092 6.917132057 8.668915748e-39
-2.031552784 0.6114326521 6.915305525 8.855106275e-39
-2.05037717 0.6147866308 6.938400646 7.933525525e-39
-2.084132571 0.6192846348 6.970592876 7.656207157e-39
-2.109123801 0.6203175155 6.971765954 8.852572728e-39
-3.018766949 0.9714972292 9.779808354 8.852579734e-39
-3.041054905 0.9669511815 9.74203824 7.655133763e-39
-3.045396463 0.9622884119 9.697133696 7.84060122e-39
-3.06669897 0.9587119107 9.657341672 7.933161187e-39
-3.087062468 0.9540164384 9.609557661 8.021396747e-39
-3.102495268 0.9471842321 9.552767065 8.206852994e-39
-3.119919713 0.9413682273 9.496976973 7.47001663e-39
-3.133381993 0.935475296 9.436157362 6.729904031e-39
-3.145898105 0.927478265 9.368360836 1.751721171e-39
-3.15018631 0.9239189896 9.330440489 2.119061755e-39
-3.162671673 0.9169810415 9.266628314 1.752079904e-39
-3.179066086 0.9112235144 9.214829858 2.487842873e-39
-3.202285144 0.9088111694 9.186036237 3.499469661e-39
-3.217694724 0.9030233114 9.132230678 3.867526308e-39
-3.23502753 0.8993846923 9.088409401 5.431617819e-39
-3.241262797 0.8959305496 9.057503104 6.167010845e-39
-3.253702337 0.8900813014 8.999675813 7.367335084e-39
-3.269089321 0.8843378406 8.948869146 8.195673435e-39
-3.291300944 0.8819395761 8.921068269 8.840688315e-39
-3.313534931 0.8794969597 8.890267543 1.114339584e-38
-3.3328075 0.8759782223 8.854460585 1.187988888e-38
-3.362851203 0.8769111192 8.8486718 1.280184658e-38
-3.372002913 0.8746218748 8.828772383 1.179021699e-38
-3.396184201 0.872284272 8.804985711 1.317099064e-38
-3.427205438 0.873262368 8.802204295 1.602004341e-38
-3.451371042 0.8719542453 8.780402395 1.529003558e-38
-3.475544176 0.870631388 8.757601181 1.32721826e-38
-3.503641427 0.8704593486 8.744814106 1.364132666e-38
-3.530739164 0.8692866896 8.73203336 1.252704635e-38
-3.554904761 0.8679786407 8.710232412 9.67080071e-39
-3.567964674 0.8678696802 8.702330951 9.116896854e-39
-3.593115349 0.8665919482 8.682536154 7.82868738e-39
-3.622189896 0.8664650482 8.672756448 5.157176317e-39
-3.644378067 0.8651110581 8.647939654 4.425023093e-39
-3.670506038 0.8638784654 8.631152226 4.704136524e-39
-3.693679273 0.86255488 8.608343489 3.871503193e-39
-3.726677705 0.8635787837 8.608576966 3.688539857e-39
-3.723042569 0.8578659149 8.560628146 4.425747565e-39
-3.733444032 0.853089088 8.507769473 4.334270801e-39
-3.726158701 0.841692939 8.413870459 4.149169083e-39
-3.707062971 0.827918168 8.294913648 3.507039476e-39
-3.704678436 0.8187179133 8.214021333 3.417374591e-39
-3.724881876 0.8173328642 8.187189913 3.785432639e-39
-3.73720026 0.8127203898 8.145345402 5.255864163e-39
-3.74731359 0.8115056912 8.130437173 5.164369182e-39
-4.88710425 1.124696352 10.52471879 3.961162473e-39
-4.928777168 1.117409402 10.43612864 6.536819115e-40
-4.977653165 1.120681606 10.45245047 9.755067793e-39
-5.020605107 1.123801413 10.45872831 1.158136327e-38
-4.994381148 1.111273082 10.35670283 9.651730439e-39
-5.009782344 1.106499955 10.30388178 8.183440099e-39
-5.035039101 1.104015126 10.27010473 1.14898809e-38
-5.11736607 1.117376813 10.35853872 9.192543149e-39
-5.131791056 1.111558624 10.30272606 4.784091812e-39
-5.137352367 1.103467673 10.22887718 1.658089211e-39
-3.896987473 0.7654370949 7.647180366 1.047896317e-38
-5.266312453 1.124573319 10.36555581 1.290018551e-39
-2.015794061 0.2521882598 3.728064555 1.013794597e-39
-2.022923139 0.2499419266 3.711148982 2.489276401e-39
-2.040891142 0.252014029 3.71525443 5.071457489e-39
-2.041119004 0.2485702632 3.685303019 9.223262414e-40
-2.053179016 0.2484605782 3.677394272 1.197824322e-39
-2.042445559 0.2439349454 3.64237572 1.383291779e-39
-2.040711054 0.2404157092 3.607409836 5.618884543e-39
-2.071489121 0.2448671212 3.636579887 2.028310863e-39
-2.078602752 0.2436503016 3.621649326 7.202674107e-42
-2.067005999 0.2368576797 3.568655221 5.522734449e-39
-2.088905656 0.2400657917 3.581774541 1.342310385e-38
-2.0871567 0.2355763143 3.548823281 1.131089445e-38
-2.082323943 0.2332472337 3.526818237 1.121978342e-38
-2.105231648 0.235441395 3.538960098 1.379080877e-38
-2.095573191 0.230768432 3.493950218 1.498323109e-38
-2.108610498 0.2307038864 3.489048841 1.525837464e-38
-2.114739058 0.2294567209 3.472111176 1.54406065e-38
-2.120867621 0.2282095518 3.455173273 1.562319989e-38
-2.125026896 0.2259018436 3.43423597 1.442933704e-38
-2.119300707 0.2213650164 3.398255008 1.61745674e-38
-2.132231309 0.2235074892 3.407322024 1.350954295e-38
-2.13539822 0.2211842331 3.38537717 1.60827291e-38
-2.133618751 0.2177538275 3.356410502 1.617420586e-38
-2.156510772 0.2209774873 3.370537373 1.093742598e-38
-2.162646867 0.2197155169 3.35259968 1.084523176e-38
-2.162837061 0.2163457914 3.327647455 1.452009074e-38
-2.171919499 0.2161895178 3.316716766 1.378540536e-38
-2.158186109 0.2116616675 3.281675405 1.36928496e-38
-2.175162364 0.2127183447 3.284788109 1.360173297e-38
-2.183253291 0.2115466496 3.272864917 1.415239002e-38
-2.173564938 0.2069329109 3.231854435 1.672521884e-38
-2.194495208 0.2090811932 3.240981641 1.406090905e-38
-2.202585282 0.2089093866 3.229043401 1.507073797e-38
-2.194768273 0.2055486416 3.205031015 1.497890248e-38
-2.207797431 0.2064987896 3.201114619 1.534624586e-38
-2.210949274 0.2042051399 3.181169583 1.599017334e-38
-2.220016883 0.2040784692 3.172238476 1.571430531e-38
-2.226130139 0.2028609064 3.157300388 1.626567702e-38
-2.226312182 0.2005058632 3.133333384 1.645006828e-38
-2.239326888 0.2004857254 3.131431614 1.654154505e-38
-2.227555249 0.197033249 3.101389679 1.672593771e-38
-2.239599952 0.1969531737 3.095480987 1.77354093e-38
-2.252629728 0.196903426 3.091579161 1.700108126e-38
-2.242903089 0.1933635787 3.055553297 1.681813053e-38
-2.257909681 0.1943595907 3.054651558 1.727658915e-38
-2.253137572 0.1909121993 3.024662526 1.746062027e-38
-2.27406808 0.1930604968 3.033789734 1.69096101e-38
-2.259319485 0.1885615395 3.000740665 1.68177746e-38
-2.277288344 0.1896337464 3.004860683 1.755173831e-38
-2.286355716 0.1895070755 2.995929574 1.746062728e-38
-2.273667425 0.1848911412 2.954896759 1.718619839e-38
-2.298559484 0.1881162538 2.969038441 1.736914631e-38
-2.295749743 0.1847443292 2.944063644 1.690997304e-38
-2.286015568 0.1812193018 2.909037808 1.663483229e-38
-2.301931039 0.1833935467 2.920126975 1.709363982e-38
-2.309014296 0.1822359248 2.909196047 1.681886201e-38
-2.318081905 0.1821092542 2.90026494 1.709399996e-38
-2.330111542 0.1820587817 2.896355828 1.700216586e-38
-2.332247803 0.1807939139 2.87838804 1.709400556e-38
-2.335376429 0.1795445642 2.861427803 1.681958368e-38
-2.341467319 0.1783714129 2.849489563 1.663591129e-38
-2.351527295 0.1782602717 2.841565769 1.617637647e-38
-2.346649097 0.1760200064 2.825559938 1.599413901e-38
-2.359670721 0.1769849559 2.822643332 1.590158185e-38
-2.362799346 0.1757356061 2.805683096 1.571899125e-38
-2.362951254 0.1734397722 2.785715488 1.562787042e-38
-2.367057177 0.1722355731 2.771762382 1.60870507e-38
-2.366216721 0.1699242062 2.750787223 1.562751309e-38
-2.379238344 0.1708891591 2.747870856 1.562679843e-38
7.169043551 1.009571 8.250280729 5.169098565e-39
7.19166594 1.018767935 8.331986167 5.444247722e-39
7.21630271 1.027993003 8.415675188 5.352408022e-39
7.241963075 1.038261632 8.50234172 5.444956779e-39
7.265615495 1.047516985 8.588038794 2.49900982e-39
7.305200059 1.057627451 8.664601144 1.660605943e-39
7.335920808 1.069010742 8.759214523 4.053016186e-39
7.36362617 1.079366663 8.851864748 8.572712405e-39
7.392347598 1.09075141 8.94649317 3.503058387e-39
7.425113344 1.102222053 9.047090241 3.227941459e-39
7.491198738 1.120289769 9.189345156 3.508124081e-39
7.361408725 1.101846137 9.0865817 4.151694223e-39
3.932599077 0.4674199849 4.800212986 2.580052516e-39
3.905583596 0.4654102783 4.798445686 1.30676673e-38
3.90785646 0.4689413774 4.834381505 7.468119272e-39
3.538756273 0.4589735832 4.956326544 7.758132002e-39
3.477603534 0.4527225929 4.936877119 7.849272454e-39
3.420633526 0.4498236369 4.941349556 9.141446202e-39
3.405724872 0.4510120665 4.953446035 9.601704084e-39
3.391830805 0.4512294934 4.967549376 1.13562825e-38
3.372884031 0.4513469438 4.974691332 1.135774125e-38
3.364050826 0.4526790629 4.996741516 1.117048014e-38
3.34206583 0.4517247763 4.998921427 1.126339043e-38
3.31906587 0.4507416446 4.999109282 1.107900337e-38
3.295929067 0.4474922819 4.981329108 1.108153272e-38
3.285080755 0.4487962175 5.001394285 1.310333875e-38
3.266118915 0.448884065 5.006536662 1.365796147e-38
3.24818649 0.4480305129 5.015685482 1.60557443e-38
3.237338798 0.4503343329 5.035736328 1.845498727e-38
3.218376337 0.4494222961 5.040893036 1.505024679e-38
3.187285069 0.4462675734 5.029172266 1.246478105e-38
3.177292902 0.4462896626 5.03024777 1.237258683e-38
3.155307906 0.445335376 5.032427681 1.227609762e-38
3.153558572 0.4488250056 5.065393747 1.043433882e-38
3.456536428 0.6309539879 6.638632387 5.807633841e-39
8.274826259 1.907232546 16.37078372 7.562914311e-39
3.456954483 0.6377674459 6.693535786 7.28199881e-39
8.243326942 1.913232255 16.43694133 2.845252454e-40
8.182402923 1.911424941 16.44742874 2.027590596e-39
8.124509826 1.910674466 16.46187794 4.148804745e-39
8.061540325 1.908779786 16.46638071 3.600674239e-39
7.998562678 1.905870375 16.46989898 3.878358345e-39
7.942691506 1.905162974 16.48733297 4.431895061e-39
7.907646219 1.90309976 16.48162623 4.339340699e-39
7.8517912 1.903421766 16.50104404 4.799598581e-39
7.797949958 1.902772116 16.52246215 5.26165573e-39
7.749215884 1.904325722 16.55781293 5.353844353e-39
7.700451648 1.905820185 16.58916074 1.003851684e-38
7.642565618 1.905084533 16.60461116 1.446785593e-38
7.613142532 1.912230751 16.68073776 8.027832911e-39
7.647258902 1.930380957 16.82723164 1.022360034e-38
7.650419995 1.946642682 16.97998807 1.391251855e-38
7.601694052 1.94921111 17.01632145 1.46511696e-38
7.521428421 1.941751951 16.98203199 1.621811835e-38
7.439102248 1.934175956 16.93975926 1.437493163e-38
7.368996001 1.929020241 16.92636195 1.575712199e-38
7.301935889 1.925950919 16.91891215 1.630996786e-38
7.25670047 1.920525357 16.88832889 1.575895348e-38
7.192685247 1.917542645 16.88685431 1.621812956e-38
7.118473455 1.912182608 16.85948909 1.52122509e-38
7.051405183 1.908098646 16.85105287 1.649687025e-38
6.986375002 1.905087073 16.84758719 1.668054825e-38
6.921314688 1.902016295 16.84012234 1.732806585e-38
6.858307525 1.900047615 16.83962664 1.658979175e-38
6.814064952 1.89460653 16.80803655 1.704825177e-38
6.744927979 1.889390853 16.79063065 1.714222985e-38
6.681898689 1.887377762 16.78713511 1.640612496e-38
6.61377732 1.88319082 16.77170932 1.769325544e-38
6.549731965 1.880148902 16.76623558 1.834006258e-38
6.483625929 1.875990212 16.75279337 1.640720116e-38
6.447519862 1.872809497 16.73911064 1.622353157e-38
6.380398854 1.868621917 16.72367542 1.843476793e-38
6.317353397 1.865579272 16.71819415 1.806420156e-38
6.253285453 1.862492971 16.70972247 1.84344092e-38
6.188187939 1.859348165 16.69725724 1.971939289e-38
6.128195532 1.857406889 16.6987376 1.788160957e-38
6.060021287 1.852116512 16.67632762 2.009034181e-38
6.026960725 1.850022344 16.66860529 1.917377491e-38
5.963893157 1.846935315 16.66012608 1.953646038e-38
5.90388569 1.844964451 16.65960781 2.064314145e-38
5.843863627 1.842963969 16.65708901 2.082826559e-38
5.782833519 1.839949485 16.65359322 1.843585394e-38
5.721796483 1.837920114 16.64908141 2.101263442e-38
5.660758369 1.834890835 16.64458632 1.917163232e-38
5.622562091 1.831533931 16.61891925 1.953932884e-38
5.560478254 1.827416621 16.60844679 1.926488593e-38
5.504539749 1.826575986 16.61688125 1.870851299e-38
5.443479648 1.824502233 16.6093715 1.852735453e-38
5.384473034 1.822530521 16.6088457 1.843406588e-38
5.321367312 1.819369583 16.59536612 1.705257758e-38
5.256192749 1.814076994 16.57293166 1.751498365e-38
5.223094525 1.811908707 16.56021086 1.834114999e-38
5.165079803 1.809921592 16.55867823 2.027041707e-38
5.104012018 1.806833078 16.55018207 2.009212146e-38
5.040876163 1.803612816 16.53270332 1.825039489e-38
4.982861904 1.801625672 16.53116878 1.935061037e-38
4.920740405 1.797434481 16.51569785 1.889143989e-38
4.86271061 1.795417749 16.51216469 1.926309507e-38
4.83165094 1.794321943 16.50441251 1.926453421e-38
4.771575047 1.791217908 16.49490951 2.128922412e-38
4.71559888 1.790303273 16.4983455 1.981698352e-38
4.656515833 1.787183715 16.48783566 2.04609194e-38
4.597456007 1.785108505 16.48031086 2.101409458e-38
4.54044117 1.783120515 16.4787688 2.119703689e-38
4.485502578 1.782279181 16.48719764 2.138467076e-38
4.455457403 1.781212264 16.48143847 2.101338692e-38
4.39841291 1.779165186 16.47589725 2.128637247e-38
4.344497423 1.779367325 16.4873017 2.03658427e-38
4.285391773 1.776203356 16.47379201 2.064457918e-38
4.229406982 1.77427399 16.4762435 1.981770799e-38
4.175461362 1.774416923 16.48364878 1.852841111e-38
4.118438995 1.772414257 16.48110741 2.146895886e-38
4.061386735 1.770352267 16.47456688 1.990737427e-38
4.03440263 1.770401541 16.47677055 2.027544774e-38
3.97839546 1.768427736 16.47622028 2.11962914e-38
3.921365803 1.766410276 16.47267959 2.083150118e-38
3.865359264 1.765436317 16.47211642 2.10112093e-38
3.808284161 1.763330034 16.46257604 1.963116714e-38
3.753300363 1.762399877 16.46500519 1.972549975e-38
3.698293092 1.760425225 16.46444739 2.165403956e-38
3.667179606 1.758226012 16.44971293 1.715374152e-38
3.613203237 1.757309922 16.45313386 1.944749614e-38
3.559242543 1.757423238 16.45853862 1.935816197e-38
3.502174984 1.755331659 16.44999946 1.852697197e-38
3.447167713 1.753357125 16.44944166 1.889611042e-38
3.391131042 1.752323961 16.44487933 1.834581211e-38
3.361017693 1.75012402 16.43013734 1.917233578e-38
3.305995602 1.748119898 16.42758092 1.990739109e-38
3.250996491 1.747160005 16.42800953 1.9817722e-38
3.194906453 1.745023377 16.4164611 1.898975359e-38
3.136755496 1.741769857 16.3969442 2.147076233e-38
3.082771596 1.740838972 16.39936582 2.266819709e-38
3.026696631 1.738731962 16.38981792 2.147362378e-38
2.995552396 1.735473606 16.3710991 2.036909651e-38
2.94153082 1.734468574 16.36852035 1.981699753e-38
2.886494033 1.733434772 16.36394859 2.009536547e-38
2.834540064 1.732561518 16.37035432 1.880786225e-38
2.781625092 1.733762865 16.38173644 1.880966852e-38
2.724451067 1.729464297 16.35922889 1.889610341e-38
2.672512774 1.729620568 16.36761844 1.880354625e-38
2.616437809 1.727513557 16.35807054 1.861880186e-38
2.589392807 1.726444456 16.3522888 1.94449682e-38
2.534348505 1.725395888 16.34671963 1.907870241e-38
2.464521887 1.71183387 16.23843033 1.824965501e-38
2.372517757 1.6789948 15.97557336 1.907940727e-38
2.238166912 1.609614331 15.40453378 1.769146738e-38
2.173408698 1.597181858 15.30519254 1.631642364e-38
2.125477776 1.597350025 15.31455227 1.33694089e-38
2.101546952 1.598500656 15.32371661 1.19814536e-38
2.175641284 1.709266767 16.25564836 8.76721123e-39
2.110921342 1.697908098 16.16128984 2.132814098e-39
1.800458553 1.453008713 14.13097444 1.382215582e-39
1.723591315 1.423424733 13.88595736 1.198184456e-39
1.657255465 1.401868858 13.71075238 1.289662621e-39
1.612256178 1.400901804 13.71110576 1.197824322e-39
1.538869216 1.347355967 13.26638978 1.198184456e-39
1.474396438 1.323532427 13.07320125 1.658815083e-39
1.40561248 1.295105397 12.83910828 6.442171213e-39
1.358165085 1.287267068 12.78057367 3.048222129e-39
1.307490505 1.276986965 12.6920947 4.790204276e-39
1.262233106 1.272516942 12.65849775 1.297942893e-39
1.240081252 1.269237212 12.63870999 4.601139686e-39
1.199074886 1.269252269 12.63801915 6.450800409e-39
1.159136334 1.269399803 12.64631842 7.373483982e-39
1.118114902 1.269385257 12.64362801 7.932471748e-39
1.077123536 1.269429902 12.64493579 1.309035292e-38
1.036147303 1.269504164 12.64824412 1.171210862e-38
0.996216288 1.269666507 12.65754365 6.376329804e-39
0.9762777685 1.270799431 12.66567859 5.728812204e-39
0.9352939989 1.270858885 12.66798664 2.514223718e-39
0.895332791 1.270962022 12.67328702 3.825390665e-40
0.8543490214 1.271021476 12.67559507 7.444440131e-40
0.8134186044 1.272184364 12.68488733 9.797878863e-41
0.7735258752 1.273420658 12.69917148 1.016684075e-39
0.7335571305 1.273508987 12.70347159 1.8439154e-39
0.7125501738 1.273509482 12.70263028 1.936465558e-39
0.6726957307 1.275819608 12.72189905 2.027587793e-39
0.6317420939 1.275938267 12.72820626 2.210895849e-39
0.5907733979 1.276027338 12.73251485 2.027584991e-39
0.5520406552 1.280573446 12.76774406 2.211613314e-39
0.5097983103 1.276130709 12.73612317 1.935392164e-39
0.4712934349 1.284120594 12.80130451 1.475860154e-39
0.4628925103 1.325186995 13.14280705 1.475851747e-39
0.4339095929 1.37208238 13.53938531 1.56624951e-39
0.3817453968 1.337903399 13.25524518 1.56732851e-39
0.3359796239 1.32644222 13.15474592 1.568045975e-39
0.2922891072 1.315127614 13.06423047 1.843558069e-39
0.2504805033 1.318527942 13.08949821 1.753163107e-39
0.2086028637 1.319795175 13.10579699 2.212697919e-39
0.1870868568 1.311804697 13.03806818 2.213059454e-39
0.1508718674 1.371199798 13.53553061 2.305620823e-39
0.1067563848 1.354056796 13.38909621 1.658794064e-39
0.07995702618 1.446347608 13.40693449 1.198906125e-39
0.03702667346 1.447511953 13.41624179 1.105630094e-39
-0.3324637027 0.7620104429 7.969421321 4.978582229e-39
-3.081504196 1.030011118 9.67639994 8.393767992e-39
-3.095982058 1.023089375 9.61360308 8.669647226e-39
-3.113392053 1.016303096 9.559827375 8.669288494e-39
-3.136641244 1.013831605 9.527034596 8.576728526e-39
-3.149142528 1.005864117 9.461237652 8.576011061e-39
-3.149537366 1.000094941 9.409318814 8.760035181e-39
-3.168863057 0.9954726948 9.366526704 8.208655064e-39
-3.192089644 0.9930456151 9.33673377 8.108884014e-39
-3.208484057 0.9872880879 9.284935313 3.409434834e-39
-3.222901654 0.9804847562 9.230136771 4.236308828e-39
-3.24125028 0.9758174448 9.184338246 3.131768944e-39
-3.266416022 0.9745100504 9.162543871 2.854824724e-39
-3.276909733 0.9665559746 9.097732144 2.85518766e-39
-3.285091445 0.9642067226 9.073825091 2.763712298e-39
-3.29558454 0.9572525241 9.008998557 2.488200204e-39
-3.320735215 0.9559747921 8.98920376 1.844275534e-39
-3.334152296 0.9501706694 8.934382887 2.487486943e-39
-3.352447948 0.9456069151 8.895583365 1.843921005e-39
-3.365834896 0.9398619981 8.84476165 1.93538796e-39
-3.385115002 0.9363284522 8.807954425 2.027589195e-39
-3.382494838 0.9305866944 8.758012595 2.672236935e-39
-3.385094731 0.921419623 8.679157477 2.211260187e-39
-3.409253037 0.9201263687 8.658355844 1.569129179e-39
-3.419685866 0.9132905815 8.601527627 2.21522446e-39
-3.437950768 0.9097859103 8.566712457 2.85951487e-39
-3.452299568 0.9051156129 8.520882884 3.229730917e-39
-3.47056447 0.9016110013 8.486067713 5.344469666e-39
-3.467914167 0.8959284632 8.440125995 6.724866363e-39
-3.491064806 0.8946492154 8.420316151 7.185139659e-39
-3.49949722 0.8888118496 8.36345808 8.197475505e-39
-3.520693639 0.8864425193 8.337649256 1.004209576e-38
-3.541890057 0.8840731295 8.311840433 1.105191627e-38
-3.563086098 0.8827036767 8.286016804 1.096477513e-38
-3.588198858 0.8814999728 8.271222383 1.097160225e-38
-3.604197816 0.8825114993 8.271327957 1.409940692e-38
-3.623424577 0.8800814932 8.241503975 1.520038611e-38
-3.646567679 0.8788171135 8.222694396 1.4921623e-38
-3.677588671 0.8797951638 8.219913933 1.35444549e-38
-3.688937535 0.8751226822 8.174061789 1.354517937e-38
-3.722897579 0.8772212054 8.179287407 1.051391155e-38
-3.727095141 0.8738396206 8.153365487 1.134259322e-38
-3.764009305 0.8770290139 8.164597607 7.936038053e-39
-3.772396513 0.8712804707 8.113739228 4.254351947e-39
-3.805379262 0.8733339142 8.115957476 2.775973659e-39
-3.820659534 0.8697974561 8.079120157 6.536819115e-40
-3.849703093 0.8707296389 8.0733248 9.755067793e-39
-3.87186137 0.8694349141 8.052507165 1.158317655e-38
-3.883921992 0.8683253624 8.044613942 9.743577146e-39
-3.904110366 0.8669699758 8.0197821 8.183440099e-39
-3.924299349 0.8646146664 7.99496602 1.14898809e-38
-3.940541234 0.8621528874 7.963120841 1.167211135e-38
-3.920370266 0.8485254166 7.854155356 5.335104789e-39
-3.903131054 0.8360332869 7.75419622 1.843197935e-39
-1.984200665 0.2882868317 3.803302547 1.66782263e-39
-1.985299358 0.2870952203 3.790326661 4.88277125e-39
-2.00819953 0.289304183 3.803468312 1.106351762e-39
-2.006465023 0.2857849801 3.768502665 1.849301991e-39
-2.015563384 0.2845992229 3.755586968 3.495503987e-39
-2.026638327 0.2844592034 3.74567088 1.476976989e-39
-2.035744221 0.283258615 3.731755394 5.707120104e-39
-2.041888466 0.2809819509 3.712832719 5.07183584e-39
-2.050986589 0.2797961936 3.69991702 8.279604206e-39
-2.052077748 0.2786193835 3.687940924 9.934075264e-39
-2.068091773 0.279601337 3.686046918 1.35131611e-38
-2.079151647 0.2794909238 3.678130646 1.240788834e-38
-2.089227306 0.2783502727 3.668222081 9.466987454e-39
-2.091424451 0.2759671127 3.642270545 5.607728806e-39
-2.113339554 0.278145711 3.653404853 9.46481404e-39
-2.129338512 0.2791572673 3.653510426 8.456787187e-39
-2.117612453 0.2746160716 3.617484321 8.824487904e-39
-2.316088393 0.2638591046 3.423111898 4.048686174e-39
-2.307385108 0.2592756855 3.384108759 5.701725105e-39
-2.263101889 0.2458528132 3.289960978 1.314184223e-38
-2.224734437 0.2345968902 3.206827127 1.286597e-38
-2.226893299 0.2332876147 3.185859732 1.323295325e-38
-2.23991554 0.2332526718 3.182957934 1.295816423e-38
-2.236044774 0.2309983332 3.165959837 1.30496424e-38
-2.240173537 0.2297497266 3.149007125 1.29578041e-38
-2.249256591 0.2285935458 3.138091244 1.249862802e-38
-2.261293385 0.2295281757 3.133167298 1.268194028e-38
-2.269369007 0.2283860684 3.123243684 1.268193888e-38
-2.265589502 0.2249542215 3.094261967 1.240642818e-38
-2.26674093 0.2236590079 3.074287076 1.28648896e-38
-2.271862437 0.2214260234 3.058356484 6.065820281e-39
-2.273922742 0.2213090612 3.050372738 1.286344486e-38
-2.276066915 0.2190294996 3.031419966 1.2681206e-38
-2.276226356 0.2167188642 3.010452569 1.396763442e-38
-2.285293966 0.2165921936 3.001521462 1.396727429e-38
-2.290415094 0.2153591015 2.985576063 1.43349736e-38
-2.300467534 0.2152627653 2.978652297 1.415166274e-38
-2.296665189 0.2118753111 2.952670185 1.387580033e-38
-2.29971786 0.2117738783 2.945693753 1.378468089e-38
-2.310762905 0.2116930717 2.939777301 1.424350104e-38
-2.314876361 0.2104740712 2.924824405 1.44268077e-38
-2.313058369 0.2081175683 2.900842114 1.442752516e-38
-2.322118444 0.2080057026 2.892911034 1.488598938e-38
-2.327224265 0.2068022167 2.878965452 1.516256927e-38
-2.322353841 0.2045471467 2.861959595 1.553098605e-38
-2.334383716 0.2044966745 2.858050484 1.589761757e-38
-2.344436156 0.2044003382 2.851126718 1.663193861e-38
-2.336671645 0.2009359761 2.820115325 1.617312266e-38
-2.343754287 0.2007782428 2.809169352 1.644863055e-38
-2.35974571 0.2018045892 2.810274953 1.626567562e-38
-2.361875053 0.1995546192 2.793322001 1.589869377e-38
-2.361950392 0.199406591 2.783323151 1.608200743e-38
-2.365064565 0.1971869554 2.768377539 1.608200743e-38
-2.367193053 0.1959368774 2.751409778 1.644863475e-38
-2.378238098 0.1958560708 2.745493326 1.663266588e-38
7.176308663 1.085986811 8.278098972 4.984344369e-39
7.196908651 1.09514079 8.356819611 5.166937763e-39
7.220546138 1.105366523 8.440501347 4.800303434e-39
7.252267263 1.116749086 8.5351072 1.663855554e-39
7.273912489 1.126990964 8.61980425 2.213072066e-39
7.312489617 1.13708735 8.695373856 5.248678305e-39
7.343218519 1.149485267 8.790972695 6.079150833e-39
7.367901588 1.159799095 8.880646596 2.21737125e-39
7.405721752 1.173369469 8.988175433 2.673683075e-39
7.459693779 1.190223942 9.115537167 2.951358774e-39
7.354123094 1.17519179 9.04154405 3.60139871e-39
3.493654051 0.7000372101 6.78034983 3.042835537e-39
7.744566085 1.909267293 15.5406333 2.76550596e-39
7.676467172 1.90412493 15.52822121 8.558333681e-39
7.619535828 1.903299713 15.53766346 8.755325417e-39
7.567672734 1.902604075 15.55606667 1.050378717e-38
7.507694784 1.899692599 15.55956237 5.0736281e-39
7.453801283 1.898939212 15.57398147 5.072927451e-39
7.421770767 1.89690355 15.57025269 5.25731731e-39
7.36991535 1.897222658 15.58964136 5.444600849e-39
7.321097776 1.897613595 15.61400688 5.447805619e-39
7.280424855 1.901279634 15.65726427 6.82069556e-39
7.328255216 1.930810609 15.89750108 9.212405154e-39
7.352713745 1.954633655 16.08899003 1.326643588e-38
7.286630313 1.950519375 16.07854767 1.364204272e-38
7.231220296 1.941760934 16.02508653 1.474408129e-38
7.161052689 1.935486871 16.00370572 1.520542518e-38
7.083764627 1.927981236 15.96639383 1.346018221e-38
6.999347012 1.918229178 15.91216638 1.281302194e-38
6.931202422 1.912998007 15.89375556 1.290448609e-38
6.864058195 1.907766079 15.8753353 1.336403492e-38
6.82591419 1.90451294 15.85666915 1.446964679e-38
6.763860963 1.900454834 15.85019585 1.465296466e-38
6.700800433 1.897382572 15.84271405 1.410591035e-38
6.638747206 1.893324586 15.83624074 1.520719922e-38
6.577702039 1.890280513 15.83074633 1.465621147e-38
6.521763057 1.889439759 15.83918079 1.520830485e-38
6.466823834 1.88759846 15.84762253 1.539448556e-38
6.431718282 1.885416954 15.83391747 1.566747252e-38
6.369657049 1.881344174 15.82644486 1.612916813e-38
6.311664916 1.879401323 15.82791017 1.557563562e-38
6.249574027 1.875269337 15.8164384 1.575966114e-38
6.191581894 1.873326605 15.8179037 1.704680983e-38
6.128483562 1.869180405 15.80543824 1.677345574e-38
6.072514447 1.868280565 15.80987354 1.760323322e-38
6.03943068 1.865142077 15.79916808 1.769541344e-38
5.982423387 1.863169029 15.79862724 1.741847622e-38
5.92749231 1.862342341 15.80805349 1.78819641e-38
5.864363383 1.858137084 15.79159077 1.787943335e-38
5.807371626 1.856193504 15.79304855 1.825182422e-38
5.74933367 1.853162132 15.78852897 1.916980783e-38
5.688243296 1.850029236 15.77703487 1.999490358e-38
5.659220007 1.848006184 15.77428283 1.917197284e-38
5.602213191 1.846033016 15.77374199 1.926489014e-38
5.544183396 1.844016284 15.77020883 1.972045507e-38
5.485130483 1.840955932 15.76369815 1.926238322e-38
5.428108116 1.838953266 15.76115678 1.870956396e-38
5.368009481 1.834805001 15.74866874 1.981265771e-38
5.316093174 1.834005747 15.76007294 1.604489825e-38
5.283994849 1.831836851 15.74734463 1.678138148e-38
5.218782624 1.826470262 15.71991169 1.934809504e-38
5.166851258 1.825641419 15.72931728 1.732770852e-38
5.110851871 1.823682436 15.72976822 1.724019042e-38
5.054829403 1.821679042 15.72721932 1.696288467e-38
5.000844887 1.819748101 15.72965576 1.861413414e-38
4.943800394 1.817701024 15.72411453 1.824967883e-38
4.90862594 1.814386347 15.70142475 1.742422575e-38
4.85462635 1.812425908 15.70186065 1.778977127e-38
4.800665054 1.811539435 15.70728211 1.73262862e-38
4.742558687 1.807374801 15.69377972 1.91683729e-38
4.68652869 1.805356613 15.69023151 1.889398465e-38
4.630491625 1.803323602 15.68568207 1.899333952e-38
4.576499565 1.801377957 15.68711729 1.963294819e-38
4.519401257 1.798227355 15.67459378 1.93563669e-38
4.492409609 1.798261807 15.67579623 1.898866899e-38
4.433265673 1.794023887 15.65730193 2.055020453e-38
4.380311805 1.793151479 15.66371519 1.935605021e-38
4.326282076 1.791131702 15.66015098 1.999597277e-38
4.274335637 1.790273361 15.66755603 1.981444156e-38
4.216199753 1.787049458 15.65003967 2.03690839e-38
4.163223282 1.78613252 15.65345308 2.147182592e-38
4.136215951 1.785137552 15.65267076 2.018541711e-38
4.082193519 1.783132702 15.65010682 1.945106805e-38
4.031270437 1.783317862 15.66048938 2.082826839e-38
3.974149757 1.780122834 15.64496507 2.073606015e-38
3.922165032 1.778190542 15.6473855 2.036979436e-38
3.870211673 1.77831721 15.65377548 2.064638966e-38
3.839067438 1.775058855 15.63505666 2.055095983e-38
3.787098634 1.774155983 15.63946186 2.248345971e-38
3.735099459 1.773194025 15.6398679 2.229763212e-38
3.678993744 1.770027872 15.62633565 2.000316423e-38
3.62597145 1.768022175 15.62376418 1.944929121e-38
3.577101519 1.769309432 15.64111589 1.972263409e-38
3.523064021 1.76727498 15.63655237 1.889791249e-38
3.494988372 1.765147583 15.6267938 2.073498535e-38
3.443012416 1.765229854 15.63018488 1.944964714e-38
3.390997558 1.763238237 15.62860616 2.018181437e-38
3.336930166 1.761144578 15.62004347 1.898650678e-38
3.283900335 1.759124192 15.61647174 1.898541517e-38
3.23189363 1.75814732 15.61587847 1.834654358e-38
3.177818702 1.756038853 15.60631552 1.834185904e-38
3.124773566 1.753988864 15.6007442 1.926236079e-38
3.095675422 1.751817798 15.58799427 1.954039663e-38
3.043622894 1.749752286 15.58141611 1.94471276e-38
2.993722923 1.750980933 15.59477524 1.852912016e-38
2.939617007 1.747813324 15.58122794 1.963043145e-38
2.890716942 1.749041376 15.59458049 2.027867913e-38
2.835573696 1.74580048 15.57604129 2.055096544e-38
2.783543771 1.743779379 15.57246298 2.229726498e-38
2.756476167 1.742665867 15.5636814 2.054880323e-38
2.705491964 1.741732798 15.56608045 2.137926175e-38
2.653424363 1.73963755 15.55750177 2.165837378e-38
2.600364406 1.737557972 15.54993182 2.119665854e-38
2.547244177 1.735359968 15.53436261 2.119270968e-38
2.494123324 1.732162013 15.51880725 2.046163126e-38
2.444207678 1.732361254 15.53018256 2.065066222e-38
2.417101795 1.730173923 15.51641731 2.018971349e-38
2.363996394 1.728005522 15.50284768 1.99023324e-38
2.311929031 1.725910394 15.49426899 1.880642592e-38
2.259816237 1.723726351 15.47969252 1.981554578e-38
2.206702921 1.720543324 15.46513743 1.806815042e-38
2.154605194 1.718388885 15.45256054 1.723588423e-38
2.128522423 1.71724516 15.44177185 1.769469457e-38
2.074303007 1.712855585 15.41324204 1.797091292e-38
2.022227876 1.710745662 15.40366404 1.861196633e-38
1.97112263 1.708575805 15.39007936 1.760178008e-38
1.919017486 1.706406677 15.3765022 1.695928333e-38
1.865820684 1.702060771 15.35096376 1.37241434e-38
1.805099848 1.689699385 15.2565909 2.763343756e-39
1.564547286 1.447540673 13.34672421 1.752079904e-39
1.50760608 1.43174754 13.22337035 1.474414014e-39
1.433372222 1.393451714 12.93045544 1.198548793e-39
1.390282447 1.392305573 12.91879534 4.880603441e-39
1.339621587 1.380055332 12.83234652 4.70053799e-39
1.290007305 1.36989294 12.75186024 3.319405611e-39
1.242567321 1.362069406 12.69432495 3.780025028e-39
1.219309368 1.357583366 12.66056247 3.595629565e-39
1.178279775 1.35655406 12.65688564 1.658799669e-39
1.142782334 1.364556436 12.72304373 1.381861053e-39
1.111733655 1.380428567 12.84805995 1.472973479e-39
1.077357944 1.390666806 12.93017848 1.290019952e-39
1.137301823 1.636711927 14.89235612 1.105987425e-39
0.9813029199 1.40557153 13.05469924 1.289658417e-39
0.9347713225 1.395569896 12.98518856 1.105988826e-39
0.89055981 1.392187757 12.95756706 1.289301086e-39
0.8496294002 1.393350779 12.96686027 1.289301086e-39
0.8075697163 1.392262996 12.9591918 1.289659818e-39
0.7655552387 1.391264035 12.95752303 1.28966122e-39
0.7247842629 1.394737649 12.98778268 1.197462787e-39
0.7072178953 1.401593881 13.04482156 1.28966122e-39
0.741099811 1.598695071 14.60486371 1.197824322e-39
0.6930245809 1.596582131 14.59525657 1.105630094e-39
