ply
format ascii 1.0
element vertex 708
property float x
property float y
property float z
property uchar red
property uchar green
property uchar blue
end_header
4.107513434144093 0.9326490687483691 -0.6598129398486154 76 97 60
3.154904210083345 0.8514573618162905 -0.6100910544944176 101 119 97
3.1944225881706325 0.819193046114779 -0.5763889642048522 67 82 59
2.8814004727118423 0.8050228852731167 -0.42827377201045136 107 153 114
3.3702795568864414 0.5023010729612377 -0.03546949865753769 30 23 15
4.487077657207984 0.7625930317502169 -0.18491823745275723 44 34 25
2.7765858484480783 0.6990922356848025 -0.22935607942149502 236 80 88
3.3150048996329473 0.7367790773806874 -0.3980739372963535 129 116 110
3.1512570763408356 0.7978421357269321 -0.5297630832463228 95 85 84
2.7066193789880693 1.38309489545748 -0.5769045751009683 142 133 132
2.915010607721735 1.5452789172007804 -0.7381556050716829 78 71 65
3.1955359197532895 0.7591275945367207 -0.46174099542113 91 82 77
2.366976696897486 -0.07330645950076004 -0.11708969816679803 99 87 89
2.510609207894676 -0.03334975333490479 -0.4356838021546809 199 192 201
3.7226425148453424 0.12865955896271986 -0.9058436969329038 66 57 66
2.713873187245541 0.3290058443969225 0.4283141251801589 46 39 38
3.2416963025286165 0.4467909482349238 0.013124457138123186 22 14 11
3.1906310026421374 0.4679452779477544 -0.01928128797221406 22 15 9
3.271861500200724 0.5064167786093872 -0.05139716863370905 36 29 23
3.0602668333214886 0.5397710014094377 -0.13587166357977354 53 63 46
3.110567378144878 0.5885514910435736 -0.22243509368869774 10 13 5
3.1031846141323567 0.6120411105949882 -0.2616818864665724 9 4 1
2.789581445386362 0.6141340423537015 -0.14947075445518296 107 147 110
3.1701726265779575 0.6394354267778886 -0.2902777823272312 9 5 3
3.222524154971345 0.6654381170687003 -0.30339430029428033 13 2 1
2.7765858484480783 0.6990922356848025 -0.22935607942149502 236 80 88
2.816905104757885 0.447924808226517 0.2681847847785712 145 134 130
4.504239492592454 0.8830244768026746 -0.3347523801098611 55 50 38
3.537395603771238 0.9668486311864161 -0.8351454522140765 59 101 57
2.81172400022348 0.36019922967133783 0.39408851487312757 27 23 20
3.4905890551585945 1.286228827059277 -0.8782519229318899 63 88 56
3.6646615592702254 1.4528859426220373 -0.757538035368699 52 48 36
3.494151036908065 1.525072896488728 -0.7891623217675376 57 51 39
3.4953139748168107 1.0351655709663632 -0.8553823152438694 43 36 28
3.2193750677891373 0.8831018863205242 -0.7213759072343401 49 44 40
3.7465855049513985 0.9966242460742314 -0.800446519731147 41 39 27
2.8812394697403474 1.0629707155705506 -0.6790999569596872 83 170 92
3.7454518889949835 1.359267820704694 -0.7784119459704426 72 100 60
3.4901733815583533 1.5220027419303657 -0.7995474407277569 57 51 39
3.6069175310479005 1.3747115259512228 -0.8359696549097444 64 93 49
2.8807371822696366 1.0631115490014411 -0.680679622907332 83 170 92
2.686159616425506 0.9540931055361851 -0.4016442991370958 103 87 87
3.7456233411389377 0.9968578401325046 -0.8025552593181313 41 39 27
2.701122215027469 1.4098175180930697 -0.5412871233313385 163 149 148
3.117059520790398 2.0857431351756843 -0.37554924009258966 162 189 156
3.2574300861603405 1.3871350879355804 -0.8780194437924055 47 40 32
4.683590486703694 0.6863731557837327 0.025663561219831568 175 156 132
4.1432422406104665 1.0961383508853977 -0.6603299359925217 53 84 42
2.637860629810213 0.976448870925261 -0.3500896122283679 104 72 70
2.7697585309037227 1.1259583024641098 -0.6185830854658924 108 90 88
3.457203165664091 1.5566466393960847 -0.7834906935556479 56 50 36
3.290797222425636 0.9669484442569066 -0.8503619995499937 51 42 35
4.093732400395666 1.063279809715624 -0.6744125995638383 40 32 21
2.778913468781907 1.1173773625936811 -0.6125153952036723 108 90 88
3.4201758965684084 1.329284525653713 -0.874542063388866 42 43 29
3.628307666175601 0.9999982602271441 -0.8441228595017922 52 98 45
3.459299061101494 0.9216033042571702 -0.8141508400774876 49 47 35
3.4011811802193987 0.8617732797761611 -0.7887500100166668 49 42 34
2.970242849469535 1.5254738669028114 -0.7848405363183703 95 83 85
2.679762655861582 1.341610746050937 -0.5730667354816065 138 122 123
3.0973540469319287 1.3059895536740334 -0.8656790020146743 61 106 65
3.0713218216984215 1.237171392710666 -0.8551292191820564 53 45 42
4.013645367721883 1.1109950928307089 -0.6760613704218873 63 71 47
3.4601737734548106 0.9216497136583236 -0.8154744405859833 49 47 35
3.2413509391747772 0.7961132639749023 -0.6076332898160024 77 71 68
2.884317466272346 0.7379049689749445 -0.35121916458754 57 103 64
2.723027333985656 1.2976972607378918 -0.6036132047648893 252 242 240
3.2894974646084427 1.3015365319768182 -0.8977139596052524 37 27 25
3.310796996668405 1.2878159198793737 -0.8957573564702899 45 36 29
3.042714217886703 1.7744733963270767 -0.6745210889557014 86 148 87
3.3741716108367883 1.6440511837516256 -0.731199686797249 53 50 35
4.597939707484778 0.7489577108085855 -0.10769450291788099 143 125 118
4.366484331445803 0.8419381156778022 -0.384709080324929 76 79 60
3.1740082599018966 0.9830786011112255 -0.7692733210508087 76 66 67
3.109224721879234 1.0754708099928902 -0.8096600950377142 51 48 43
2.6610159380654212 1.1049152396454442 -0.48138031841700196 240 148 111
2.9367547416466127 1.1319047868648162 -0.7395020221950533 65 56 58
3.6105296927590844 1.2754316345368957 -0.8493007882052482 34 39 19
3.431635719244332 1.2626467983222438 -0.8881102234759174 40 31 24
2.87349972588519 1.3936885607606677 -0.7504046480413278 108 100 98
3.32790824313164 1.5052685197300817 -0.818554236119466 46 37 28
3.4456736008442896 1.6030325472095852 -0.7223462645035349 57 50 38
3.497297921805082 1.63733413941634 -0.6845827853052745 55 49 35
3.460668258689942 1.6658325820712354 -0.6857936083606986 80 89 68
3.038444359972227 0.5330495790446629 -0.12921261493871 57 70 53
3.2330331007914523 0.6859870861709872 -0.3304565210074319 50 40 31
2.9272107774702056 0.9019583492907757 -0.5713014514327626 88 136 96
2.72687984952016 1.4094547740661458 -0.5857881088391641 255 250 248
3.3249940293259055 1.5826665683145678 -0.779523662952057 214 199 192
3.3885031501474554 0.48134158851939934 -0.010694321010580134 47 40 32
2.168955048626728 -0.16985848518744268 1.3660674428407957 37 32 28
2.6918985307031695 0.2721068262549501 0.4437996796375692 185 175 176
3.2082683155533656 0.943205241518131 -0.7975135059089351 99 87 87
2.830939416696263 0.8623091256260769 -0.45603854913386666 100 165 109
2.9095902359442785 1.5822398673751135 -0.7193971644170932 109 138 107
3.096490113887925 1.7211804435604336 -0.7148445667783286 17 61 11
3.0904569479623345 1.5829364944320037 -0.794305155054251 50 46 34
3.1029087254277212 0.8373959984108348 -0.5744141265644498 88 103 83
3.173786315888391 0.8136963089563234 -0.5536247545394906 65 57 54
2.7982929269173873 0.7679530570891997 -0.35213445668479376 225 48 58
4.615262730559242 0.7630025233863887 -0.1396128926825676 63 54 47
3.6024773192995325 0.6343241975902019 -0.026296606369536457 44 35 26
2.6807687572955228 0.5135200391855581 0.3974984039186547 101 90 88
2.73546772508097 0.2984425877318287 0.4109072654447143 52 43 46
4.349032248723545 0.3287587031506335 0.743652044072294 152 132 131
4.2711256563676026 0.31091617475220074 0.7241320055937932 160 136 132
3.370943142796198 -0.012422854007634383 -0.6866620179588974 86 69 62
3.2111186433794967 1.4022955599505793 -0.8798991779808998 40 33 25
3.9155263789783006 1.5345557540217385 -0.5990912890508255 81 68 51
3.348956354856361 1.4172698538487662 -0.8539046340113677 70 70 58
3.063903195927023 1.2526050392310364 -0.8430096950317562 72 102 74
2.644168163384658 1.195575710087909 -0.4764263374422704 250 189 125
4.1736341706913676 0.31647305213559107 0.6928346957380902 44 35 26
4.349035888513596 0.32875506085967626 0.7389393392470934 152 132 131
4.233128474045041 0.3648865145765758 0.7284925929377976 155 134 131
3.2424928311276515 0.3842550016515852 0.09912896972747014 106 99 93
4.638057181911012 0.7645228595220174 -0.10728176975215847 63 54 47
2.9811664279360715 0.8760834088699243 -0.5630918611253141 58 93 61
2.5024188709017903 1.1313505291382318 -0.1887072416075845 235 117 74
2.8014680637220284 1.1323020449523322 -0.642045521543792 92 71 74
3.4511546151826877 1.314318693140546 -0.8707443480004663 32 37 17
2.6209166470058323 1.3280877813198613 -0.4514547294827673 255 211 198
2.4281702538179037 0.5363923813022654 0.5940556418621853 103 94 96
4.089732015073119 0.9583004277825673 -0.6843247104821595 48 40 27
3.401661211087348 0.49566985841452366 -0.030935889779352747 142 131 125
4.1842204565272265 0.35033625206907887 0.7085479329852916 132 114 110
4.2045536204941 0.34660752006336837 0.7057592719411225 47 36 30
2.7597455650647738 0.8169176640435009 -0.34645907671597065 161 55 29
4.107001654530401 0.26358463550314865 0.6597701397573859 152 133 127
4.202883986502291 0.3236620085808297 0.7109723405545603 143 124 118
4.2916609652169315 0.348774932964537 0.730024398075402 144 125 121
4.399906781387818 0.39227958011873904 0.767567042839624 126 108 104
2.8060621460084225 0.5215208832905073 0.007296347619442244 103 116 96
3.6504542398440747 0.6154336771594314 0.011477307940132783 48 35 26
4.74133711811036 0.8012297075206555 -0.09966660883592222 58 43 38
3.1826694000080002 0.7982736672340783 -0.5406819534624677 104 93 91
2.7569008360093026 0.7574873380739314 -0.2962113160922936 228 65 83
2.8517819579429604 0.7780807843614114 -0.3724790555345873 98 151 107
2.810259090738185 0.8198680486038684 -0.3854830028662792 160 150 96
3.0223503593040735 0.8427489281031474 -0.5604363518740348 51 47 44
3.3986559343459963 0.99273581074144 -0.8629996301359506 75 90 69
4.0744055891760675 1.1019463665538574 -0.6612124455575643 31 23 10
3.1354993584850694 1.056268146155598 -0.840530449178225 61 53 53
3.7950958025620505 1.1998096957478228 -0.7687133928720674 41 39 23
2.822284096002994 1.2629238887856529 -0.6923772602652175 83 78 75
3.115938443248778 1.3133012647116622 -0.8729110632587728 27 40 25
3.3250659013774264 1.4321032525628836 -0.8567303769601784 74 70 59
2.7410270345392354 1.4245837710182696 -0.5920436264183738 119 103 104
2.9888275763631436 1.4903748823021532 -0.7977591598800937 64 55 55
3.460814613772487 1.8354257126971685 -0.5796419870102303 54 41 32
2.5645762772646057 1.3551360436034434 -0.33886260243764804 124 112 105
2.827294231693275 0.8046696208954586 -0.38123504703638017 96 162 109
2.8871235876782344 0.7047294477446566 -0.3076919985464422 75 143 94
2.7756986648219497 0.6702639815113507 -0.20584813366275587 62 50 50
3.1524216882014517 0.6159339250224962 -0.2574817795725355 168 158 156
3.2161236264907935 0.6902281271831266 -0.3523040625841497 35 26 17
2.9103310917918837 0.6764313081501367 -0.2988155173776244 78 116 80
2.8605655974623967 0.7586690591132338 -0.36421306906873313 76 134 84
2.7295962066446866 0.7813028107759802 -0.2814562271664705 231 137 100
2.8936119880067053 0.8478742678515823 -0.48458181359899005 51 46 42
2.530583252582476 0.8565506093448707 -0.07241218669848536 233 175 107
2.5202117256980756 0.9151426123861583 -0.1116385908342574 223 141 88
3.899838168744403 1.1166938057570348 -0.7300582937743875 40 40 24
2.3003461330811006 1.1845398546691261 0.7182488167347716 3 2 0
2.951056170697336 1.236331460363912 -0.7887780180225793 120 179 127
2.9594353505653954 1.261290082628207 -0.8000929510559595 94 152 102
2.5729424378743957 1.351135456260843 -0.3490250506515996 189 213 185
3.5207068535653754 0.7957700265599871 -0.6985552022446345 62 45 37
3.0819073814115714 0.13855253400772413 -0.6564050042177473 75 106 162
2.743755191385107 0.32258184782477956 0.4087905867530588 50 45 42
3.495057962756475 0.5362530055831195 -0.0714315641347405 55 46 37
3.019531620108943 0.5266703649529559 -0.12651535509235656 68 77 62
3.5791355354560666 0.5593235428559626 -0.04608045920095245 37 27 17
3.0705600888008857 0.5663434641888488 -0.18726814505114558 28 26 20
3.3275886440782196 0.6024010429950948 -0.1674803434960868 85 88 69
3.1223120905187964 0.5983783142058737 -0.23209085431796642 27 24 17
3.32349465056768 0.6027603492144097 -0.18182844316732022 85 88 69
2.924964619812894 0.5972690520696171 -0.1970394293443625 41 41 36
2.96787897153175 0.6130405936539962 -0.24129064581572784 31 23 21
2.7524488622090217 0.6211806867074597 -0.11939408111330244 121 150 119
2.856688833557362 0.7856593934433658 -0.3940342896675858 57 113 64
2.8545149200098217 0.7022379139903089 -0.29743243160567495 58 47 48
2.816426159664493 0.6841239322812781 -0.24826985655561387 220 211 212
3.258705384200941 1.3319860768464957 -0.8891237568994582 55 60 48
2.5372588290037807 1.213194081394734 -0.2600117312427015 156 108 68
2.811638025373442 1.1248031780493772 -0.6326282115215422 106 187 127
3.8283918069571183 1.0877965862392824 -0.7636197003463232 71 87 57
2.526763580290419 0.9694620356122825 -0.17041865803282785 234 159 102
4.126626233762369 0.25505897245932907 0.6727762571133674 61 49 41
2.716715144787209 0.6344466436671654 -0.1249824724440771 171 187 160
2.4841170183085803 1.215340213003316 -0.14317304708143685 238 183 101
3.5868681717406523 0.7909296228491287 -0.6738976315796894 75 39 26
2.8447722238284405 0.685942226550154 -0.2714621205515064 25 14 20
3.9094275723911194 0.9417934541580987 -0.7464888757082766 77 104 63
3.9983885954896956 0.9462757770834063 -0.7042650265032633 195 61 52
2.874694539146659 0.7517181760653949 -0.3622205531102228 52 105 59
2.8236265700526655 0.7454111894417802 -0.32342938992361087 111 51 46
3.5868665996348974 0.7909717970080752 -0.6738182966466888 75 39 26
3.2328585611075895 0.7043979573983934 -0.3712747803111545 30 28 14
3.2781384586668083 0.7023930978423828 -0.35625209887534137 105 122 88
3.390984255530183 0.676284436926929 -0.24713044170362955 41 38 22
3.1057017077470306 0.6451061383618031 -0.2997688810435341 21 21 16
2.7473608654011374 0.5342351325679909 0.06821183306536822 108 98 96
3.337875071846826 0.4989280891690653 -0.03815973539358603 55 46 39
2.7867523015249094 1.0522316123701856 -0.5998271952324284 203 125 109
3.177094793838252 0.6146861770729232 -0.24953600156519548 26 19 11
3.770004311608086 0.879203440204609 -0.7282098669252017 77 139 78
3.3602835217514104 0.8856951958219274 -0.8051683743860363 28 17 15
3.2462669622406954 0.46882301571373775 -0.009356368660098773 27 19 16
3.100153359635094 0.5052198073141109 -0.0943905709341291 93 87 83
3.120977937073274 0.5308198854902149 -0.1299904860312801 71 68 59
2.911427616320582 0.5404722268363641 -0.11875784815575359 53 79 54
3.2716974364223335 0.6462867511879226 -0.2616461890938036 41 28 20
2.8022995372967565 0.6417951444768649 -0.18494096381894967 60 64 55
4.3463095608171045 0.8217416821054574 -0.33688931366043295 54 37 30
2.8737979995954714 0.7038280551002014 -0.30951123361690586 47 42 39
3.120933827448999 0.7287343375295539 -0.4180722943120585 31 35 21
4.317890585654378 0.8607648160791834 -0.4112038385273608 65 40 23
2.98011531396295 0.7672626198703487 -0.44470022245164426 64 92 68
2.8472641750736454 0.7779141165460062 -0.37715827539910424 99 139 104
2.8684878477054316 0.791341241597335 -0.3720144994215911 86 139 93
2.7688759962197445 0.7987854539018341 -0.3370524386686122 244 140 120
3.3897879078636293 0.8793691850997472 -0.8039240728279631 81 106 77
3.3602835217514104 0.8856951958219274 -0.8051683743860363 28 17 15
4.20644305882272 0.9691762520723035 -0.6431968960824195 75 115 65
2.7342281573230296 0.949994197555025 -0.44528096699580116 82 72 57
2.785045070807998 0.958220823424018 -0.5129010764454666 94 79 62
2.489751765481192 1.0358749035490602 -0.10750044950837119 239 177 115
2.766578838635874 1.0523739067465019 -0.587161885044133 255 125 119
3.010260081894592 1.3192559905079018 -0.8314026421422063 80 127 85
2.6467203931134335 1.342909523382155 -0.509961813947818 142 111 108
2.6859512677517023 0.6469010377902306 -0.05093358483128892 105 123 97
2.6387115483312296 -0.014458332023437312 -0.5185173266399901 97 114 155
3.270182682843422 0.4781269713199062 -0.013705445093833892 112 105 99
3.35926323762189 0.47910693531541043 -0.01625578685451903 54 47 41
3.1915191027654983 0.6784782520055759 -0.34197205188345287 24 15 8
4.444425104106839 0.7840329384176578 -0.23922669002213784 93 83 71
3.1972843359393064 0.6997933455180504 -0.3741536979340416 22 11 5
2.860590620215178 0.6837491242894332 -0.28026313439039274 21 11 12
3.192094106477193 0.7157083393960824 -0.4079406482917506 37 27 18
2.8469105016474656 0.7004552724298515 -0.2882093189815467 28 16 16
4.019138538013992 0.8560238132638277 -0.5582425138603492 196 110 75
4.029056380074998 0.8585815879849265 -0.5641158613968912 98 50 27
2.837283584325094 0.9522048073791208 -0.555351396038501 86 123 87
2.8969184137846224 1.5393497847819435 -0.716635846052157 48 37 35
2.8825563152087397 1.6165865457565054 -0.6756726666958678 63 56 50
2.892639229870661 1.6179852973975892 -0.68345061146058 61 57 53
3.4442719177033867 0.7531949412473745 -0.6024953666860917 49 33 32
3.216958002855262 0.7396624816764568 -0.4363336177786823 75 60 53
4.500481509762738 0.27527808675647647 0.8087251957642568 57 46 40
3.413027134383005 0.48963126501662735 -0.023142038713004263 54 43 37
3.4472495166476613 0.4969861092836577 -0.028715340536481906 34 20 17
3.1333646916977163 0.5326792738100953 -0.12905613452203651 66 59 51
3.024794098318343 0.5582258197026226 -0.17475704477372866 19 19 13
3.044900808843773 0.5939915015597718 -0.23277995781914124 91 90 88
2.7703098666380046 1.1081303871072476 -0.6132589974906613 131 87 75
2.7521066274501114 0.8232009568638922 -0.3470846625931413 219 134 87
3.9203025524882946 0.9316182968462842 -0.7417754292581822 190 76 61
2.7310786417038857 0.7394586172982219 -0.26820589191372496 205 80 73
3.051142640215113 0.7640785163410663 -0.47260124874282 80 75 72
3.25441047896665 0.7380934378785945 -0.4321431826691288 35 22 16
4.4172323776889195 0.8144407494257648 -0.3081062180333338 95 90 71
2.8932450914124326 0.6417922961618117 -0.24404049394217936 35 29 29
3.022331680364448 0.6273376439483231 -0.2803383711516501 7 2 1
3.063562051722883 0.6200821702208223 -0.27130359523383535 104 98 99
3.209833585067533 0.6287089193836465 -0.26225016402152684 37 23 20
3.1308189072966366 0.6190352245983481 -0.2634499286743387 7 2 1
3.052935009526521 0.6070243536382923 -0.25272858432761885 4 0 0
2.8903745391894877 0.55335817059838 -0.1281029998488513 33 63 35
2.8369044792501614 0.5087916759705879 -0.015404577997299248 136 142 128
3.408223847037274 0.48800203847907914 -0.020851793673019165 52 41 39
3.268146481647023 0.47245057939765234 -0.010173342776850914 42 34 31
3.208136013626874 0.6285105875742252 -0.2625707044559903 37 23 20
3.063740932377196 0.6202547126912411 -0.2704360292569337 104 98 99
2.933038104856012 0.6273531045808715 -0.24316709885666202 23 15 13
2.794583390455494 1.2314229741694882 -0.6593999848399821 88 76 76
3.124402479218131 0.6314847809695335 -0.2878509755925153 11 8 4
2.825376945802501 0.6431434731529536 -0.20354881357830829 27 26 22
3.213774192090169 0.7119768321746917 -0.3874347582706402 17 4 2
2.900414188741753 0.7144238039465851 -0.3381516803490408 31 73 33
3.0080242980945777 0.5513364392523028 -0.16372637297619486 31 36 25
3.0790299049137406 0.9296839840439662 -0.6673639706350822 66 58 56
3.976044349516117 0.780370257835539 -0.45604307547702827 195 90 47
4.714843866217724 0.46552140798430147 1.0376267907449128 169 154 133
4.290748101952822 0.787865897986526 -0.32400124510534883 171 153 131
1.7129115281968343 1.1463435621694429 0.33555268667324256 93 108 141
2.9789477226315664 0.0020640369831519123 -0.6216647036873744 100 122 165
2.5849560112916037 -0.01905986102401911 -0.5395772690154601 0 0 0
5.051247770619791 0.9369370485890086 -0.23074391557544688 166 150 124
2.957057382736442 0.741675345745811 -0.39001983697426745 54 92 51
3.201173293227317 0.8306053266474478 -0.6571466605897279 76 108 67
3.0628950749797603 0.925952948701546 -0.6693282391566591 62 55 49
3.202163689305628 0.8329319874957435 -0.6538459908574691 76 108 67
4.042846452655491 0.8275649942540875 -0.36506175554642956 163 80 26
3.132720605146364 0.6939622802582127 -0.35310245832427206 23 22 17
4.069129525700941 0.8925287143428432 -0.5990448437544437 44 28 13
3.9552003726828593 0.8808242157342038 -0.6933105495675617 179 65 31
3.310259622663946 0.6556752861530029 -0.18043094728402628 26 26 18
4.977464116670787 0.7406491391284472 0.18158269357750936 133 52 25
4.841501323494863 0.7353384671154904 0.05397986668157695 168 96 20
4.629670309562546 0.7109103877944106 -0.08610071461715753 64 50 47
3.5295484515058617 0.13289457549963885 -0.8456333263912683 69 81 105
3.051398070509532 0.6397922529532298 -0.3010894924770207 23 22 18
2.687885168857326 0.9521499519078939 -0.40144720380292986 114 97 90
3.258778778918085 0.7575497919938223 -0.43929024855858856 43 36 26
4.4786424124986866 0.9003106737614301 -0.3877923515737797 52 88 40
4.663053374121143 0.19193571250349734 1.0522498226573083 161 102 37
3.4492808189327566 0.7240771610913949 -0.38370346487191825 98 80 70
3.552037725974916 0.6033774257662353 -0.06985012535182268 28 26 16
3.3189680030312267 1.3526723769208608 -0.8999101439952579 57 51 37
3.498749767272569 1.4204978265766683 -0.8174577138694789 64 61 44
3.1177943850630854 1.5278398851714003 -0.8063374314419226 64 57 47
3.3035644326247104 1.2580659212008594 -0.8926600577879928 38 34 25
3.179336548652245 0.9003430823469911 -0.7279063083234696 90 80 78
3.3177504351954714 0.8000860903324437 -0.6585230486250437 66 81 58
2.1555198253581453 -0.2012739465806275 1.3903940092190332 191 173 161
4.598284157557942 0.17541044439270573 1.0177832034219818 165 106 40
3.93065781387372 0.7432871316399726 -0.38851943742697603 154 63 34
3.2848231150556226 0.7380558664703344 -0.4316872807440506 44 38 26
3.5987245801791063 0.713926566696264 -0.4852232443298536 177 79 40
4.491779441810919 0.8623065883582731 -0.313087885844929 59 84 44
4.453336796670183 1.0087671737002402 -0.4558852200521712 56 80 30
2.6722733601747812 0.7636982642367528 -0.18177064545086322 210 85 81
2.670645074994118 0.7663259607913177 -0.17380177581328865 210 85 81
3.5280928187380804 0.8139947216907938 -0.7103820038111829 192 175 167
2.5090489834367533 1.033511106171772 -0.15726098205948583 236 147 120
3.4066386687769104 0.7570373674021782 -0.6156156489190483 34 27 17
3.4002576097827255 0.7368676761802259 -0.5460803214928754 59 49 39
3.250374988454759 1.1034931246602309 -0.865234945642616 45 42 33
3.430468620274671 0.9544331866755745 -0.8392591053265425 30 27 18
4.435471146735709 0.9237166367678594 -0.42991598923398905 55 93 42
3.3855860434885527 0.7543153919875252 -0.58494865293296 42 35 25
3.0031253214201667 0.6106483278023753 -0.2546525773264718 32 31 26
3.0186758662666544 0.5706612395556689 -0.19272547913198573 28 59 28
3.250401766489568 1.1036024476241848 -0.8651541506231948 45 42 33
3.2326747288869275 0.04325063740739738 -0.7210072368599104 70 107 159
3.4880914063269324 0.7085961462596183 -0.43079380857058464 178 160 150
3.0803525197647015 1.0458038569662274 -0.7763789735295452 69 94 65
4.849829370826353 0.6904873772069369 0.1876118121769159 165 104 58
4.274062696037926 0.8888577933748371 -0.45469740300535666 173 53 36
3.3062413250550953 1.278134319731621 -0.9031761224259468 44 40 28
3.4222305307682865 1.2905487139198004 -0.890492965899937 73 83 59
3.5757708370692893 0.695664959460308 -0.4717782688268663 169 46 31
2.480779563879945 -0.08794311508002922 -0.17104666521996412 181 147 138
2.680239630364291 0.7177673574188843 -0.16063973904480064 212 91 88
3.3102694148601994 0.7417016240286405 -0.47263515231838454 180 170 160
4.406389453765951 0.29573471409433333 0.739916884713945 39 35 23
3.265222964651388 0.6689676638952715 -0.304199750766273 24 21 16
4.793834665435603 0.8144509643218921 -0.10799132399155893 46 37 22
3.4707925535451816 0.7743117331607733 -0.6540288391776715 192 181 175
2.3468067428965034 -0.06700222568582925 -0.15428608356370405 89 80 75
3.3072940329837865 1.2795824949467491 -0.9015679213804867 44 40 28
2.699584328628792 -0.004027319088847625 -0.5425332565117793 84 119 162
2.5303756782206057 0.7448329919882011 0.13325410649389371 218 103 84
2.9098235236331567 0.5907839134573513 -0.18026717152482327 45 86 46
4.772399651088864 0.8921481126318916 -0.1612742249954542 162 144 134
3.425458732649381 0.7078728063639076 -0.45618449406701944 178 161 153
2.59768890850117 0.6416734887347754 0.3892824376069343 162 152 143
3.292316000867261 0.0441786711344655 -0.7421951549431763 43 36 28
3.085646146166256 0.7250008788483522 -0.41767401850185254 56 81 52
2.603626385284427 -0.016405286996962358 -0.5085041913147792 83 112 152
4.36530696529849 0.22956609679401055 0.8083247910635499 159 142 132
2.5528752742357947 -0.04990790773833922 -0.384567964278166 220 207 201
4.2628837570401705 0.14768117343578088 0.9226345610868533 182 165 158
2.319372512357333 -0.07709375607206348 -0.12680909508531743 86 80 81
2.323532053979119 -0.06389974203422735 -0.139656602264927 211 202 197
4.368768827999793 0.2301544574180285 0.8105941920434878 159 142 132
2.865340329208206 -0.0562819867448324 -0.5207707315370799 45 35 26
3.27208240070393 -0.029745718210488874 -0.6418019457061395 215 202 193
3.268144138454231 -0.01680041315780955 -0.6600319020280137 65 52 44
2.5483899797940404 0.6710374399580686 0.5339147898925322 64 60 51
3.1622722731194806 0.6553379184454479 -0.3121235417491291 168 154 141
4.6932551725337035 0.7457950697045508 -0.0820833354623886 172 158 147
4.778946277643132 0.8316138400229195 -0.1068973515941108 158 144 133
3.0853785719783833 0.7294698027513415 -0.41382290950965667 56 81 52
3.4188564903707404 0.7000178933693296 -0.47774700867211545 178 161 153
4.40538996086349 0.8124871313354717 -0.30090248372914147 171 154 141
3.5870892902576834 0.8188466689845518 -0.7093325462415774 48 35 26
2.7790997215120736 1.479189450123009 -0.6286757207202924 249 242 236
2.806857987427416 1.4094619173194967 -0.6769923258585565 255 253 250
2.8723878110100562 1.327213437256266 -0.7619172916799251 169 196 161
2.9718673876889357 1.2046525934654975 -0.8078783959636412 81 126 80
3.5495241317251844 0.9587288189076217 -0.8368979993134488 48 84 40
2.7638952066428346 1.0007527881156428 -0.534851351455042 199 100 77
3.027065833611157 0.7228850013158956 -0.4025817055381313 26 37 20
2.5466142068615842 1.0586391685762138 -0.2579331495036117 242 154 129
3.0370612884886703 0.8487643036787451 -0.5696752441166385 80 100 75
3.7679918078406693 0.801760832360584 -0.6357951979123463 186 81 43
3.394602537498054 0.7594324672605275 -0.5833257447325186 49 42 34
2.8709960455510872 0.6466482866853951 -0.2406060569333122 51 46 40
2.844757460222029 0.6773587446301735 -0.2591095456497621 201 191 189
4.657600244423115 0.7577716395124493 -0.09709431208953341 161 146 143
4.658885479582222 0.7698858553865562 -0.11887058915659993 63 50 42
4.099438295683154 0.9201569416786815 -0.6459840407224435 68 77 48
3.2800662456877343 -0.05712927979187444 -0.49302394637360486 76 58 48
2.830349002441204 0.4857250425211863 0.06375297983623487 62 77 52
3.7952025121185287 0.7665373973957715 -0.5343079508319224 182 91 55
2.793863881760852 -0.15971096705662108 0.031194396471837783 215 202 193
2.543450927448807 -0.04378385523091779 -0.4104382911354081 73 58 53
4.340185939687574 0.2085590499330364 0.8321958258417378 154 149 129
4.4038587726569345 0.24199495774873822 0.794555075600814 138 128 118
4.38509521934991 0.24832219262216776 0.7996537301576062 44 40 28
4.149108650049961 0.25199008686478724 0.6836739658650217 147 131 118
4.435068227474894 0.2654000199562293 0.7780537415903895 119 113 99
4.472242092600047 0.2759568762194024 0.7793236197827424 114 108 94
2.678142899495057 -0.010587101460400997 -0.5371690561223681 67 98 141
4.431094243015273 0.31797990566506523 0.7485096916702308 131 117 108
3.3919521665962917 0.5672532533698259 -0.10119224282367557 49 59 34
2.7870501001039143 0.6759172922751561 -0.22325788056864282 61 47 46
4.657941736299563 0.7580642517301782 -0.09748589079640378 161 146 143
2.663048393745769 0.72735614242006 -0.21089632125595345 201 86 73
4.809654201301464 0.805811322780046 -0.06819181388636848 64 48 21
3.480492665274275 0.7292515718276359 -0.3215561236245891 19 13 1
3.4799975138830925 0.7285855388036643 -0.5376420137642032 106 33 12
2.9017138949736365 0.8256203762107948 -0.4692704608093099 52 54 44
3.736135591917827 0.7946564052120896 -0.6193493720895963 45 31 12
3.7338008538040017 0.8074769836281551 -0.6190714677594946 74 111 67
3.327528478150476 0.8369724826098809 -0.7437186971960426 39 36 27
4.108020872982997 0.919748844081428 -0.6149401169869653 42 31 14
3.0667690042184645 1.0286014157383798 -0.7704250052907453 71 96 67
3.0197499186200423 1.092224512735315 -0.7869467734645856 48 48 37
3.0640317477425576 0.6071520309850542 -0.255964255060817 16 15 10
4.170082083841512 0.2889047338080343 0.6933755602238765 126 115 109
4.340212572107874 0.20856074457596963 0.8321922396311252 154 149 129
3.0794311167397437 -0.10536633819703564 -0.3513721277490601 224 214 205
2.7442354492305205 -0.10188316679799894 -0.24433423272905688 213 202 196
2.528564927592784 -0.1541331231330047 0.0998103328630125 218 204 201
4.07122182892549 0.974984336262653 -0.6758055546561752 35 17 2
2.582773183553148 -0.03779627269800865 -0.4666564026288174 134 106 103
2.5822413687955112 -0.038824945049885255 -0.4706507147691002 134 106 103
3.001412297351157 -0.03530851272134524 -0.6207710472067706 51 44 40
3.115729758177898 0.047642209669938984 -0.6802257170836962 91 127 177
3.3791001806756 1.0936109463780248 -0.8794687729390475 81 84 65
3.520063627012973 0.8001890052485342 -0.6976377399760568 44 34 24
2.756075410403629 0.5826625152863624 -0.03847333187426421 101 117 89
3.2481005579683258 0.8155583023482641 -0.6451690944172407 91 111 83
3.3716729074311305 0.7184973092954035 -0.46289391190536083 41 28 21
3.1516195597978838 0.623762795985017 -0.2796478358804567 12 6 4
2.6508506401079206 0.7221262641013891 -0.09381162361986825 109 110 80
3.2773388686314595 0.6636983075163407 -0.29363123044377276 20 16 7
2.896469085680809 0.6789892818435387 -0.28934713105848014 42 38 29
2.8718400842852945 0.7233734048035366 -0.3267563398914968 99 138 105
3.0193490984141937 0.7264873625905529 -0.4014487656485283 10 27 2
3.439373088862507 0.7061336065118645 -0.4655404451433712 69 54 46
3.387782806644623 0.7155587542917862 -0.45106258233328883 176 166 157
2.83844405457028 0.7790428082498152 -0.37411835975896035 67 57 40
3.4405921974961275 0.7247230175055136 -0.5372159226523685 43 29 16
3.291324681862487 0.7456276213314524 -0.4742981941326034 48 38 29
3.2477662113543078 0.8147912148216624 -0.6469829579799982 91 111 83
2.8177490237906087 0.9662313667888899 -0.5576834097575224 65 69 51
3.310958266304988 0.6714115519137825 -0.28207673243053866 30 33 14
3.2990237745821265 0.906809885671784 -0.8162119544668609 34 27 19
3.2773388686314595 0.6636983075163407 -0.29363123044377276 20 16 7
3.2773388686314595 0.6636983075163407 -0.29363123044377276 20 16 7
3.1516195597978838 0.623762795985017 -0.2796478358804567 12 6 4
3.121029818495238 1.0017669626838253 -0.7672751725027988 86 97 81
2.906624693308647 1.0610326760111002 -0.6549921274282341 72 134 69
3.157699834289269 1.0508916136450732 -0.8138227692896036 69 64 58
3.2382038340973547 1.0626075713473013 -0.8514631874670899 24 19 13
2.831080235514381 0.5824540148082329 -0.1314529793326995 52 82 44
2.9959385619199055 1.3830969276489304 -0.827884163733006 69 79 59
3.4924309616119995 0.8635694478229137 -0.7669573091144677 65 83 59
2.8878142604811092 1.3636805771572678 -0.7592733177076747 106 149 103
3.043169850401512 0.5993112697618447 -0.23978660885507203 20 20 12
3.148561466922339 1.028405214036353 -0.7937636279245025 41 37 28
3.231615747082019 0.7932724887008984 -0.5915374268026025 88 89 75
2.9869620277289144 0.6258976860680634 -0.2654309882271348 68 63 57
3.167509429348662 0.6133169761928572 -0.24421830867938307 139 135 129
3.372634826089031 1.0905560470136502 -0.8753273375775624 39 40 24
3.260639485480049 0.9921198973727032 -0.8523970692110086 33 24 17
3.4225365869895468 0.8784751822412085 -0.7978179642583785 73 88 59
3.254005809104076 0.8491300493899663 -0.7165398725572031 46 78 39
3.594512776991399 0.844597112703515 -0.7198371552366646 74 111 68
3.5118647792818916 0.803780470582279 -0.7081983556807054 50 36 27
3.3337260879341826 0.7892316737912364 -0.6391695362470958 46 44 31
2.998348824393793 0.8266691016591221 -0.5194918686781161 100 92 90
3.008135214292683 0.8226468332940956 -0.508182456632556 23 19 16
3.4168321702063444 0.7632715003280682 -0.6173330895930023 23 14 7
2.912580409143212 0.8178964358404797 -0.4625614411765497 45 48 39
3.3072760494117817 0.7397614534554129 -0.4090414825465739 148 136 128
4.6710452726326945 0.8330388590647027 -0.1696879364492603 80 62 50
2.8657765337191172 0.7382168343874058 -0.34748309355908713 86 113 73
3.249825608480015 0.6803987713851262 -0.3232607361213003 19 17 4
2.8286640636154354 0.6824514391418055 -0.25334612578585036 41 32 27
3.256296559220588 0.6508370521118247 -0.27449952280882806 11 2 0
2.847924302214512 0.6458616993246525 -0.21940731495524932 30 25 21
3.6799531752971877 0.685647832010999 0.004680726643973905 46 41 22
3.347639948812365 0.5128267502938313 -0.051547953188137145 47 40 24
2.696806050147538 0.0790832757749698 -0.5527003057135076 131 160 202
2.7043867801193273 0.03423247604216826 -0.5555886103656826 55 91 143
2.546119238736599 -0.014240422802353339 -0.4923312683548547 102 125 161
2.9935787788106123 -0.06065454509648003 -0.5526443892582705 75 64 62
3.0764995834878928 -0.09967410416605618 -0.373753894779252 43 29 18
2.829923302346887 1.2790700530492525 -0.6991561054492487 102 114 93
2.8900365143956663 1.0745915246868154 -0.6984968060657937 90 154 92
3.208185132581348 0.8338445577831084 -0.6511821176995289 62 93 54
2.571840964799161 -0.040386901574481444 -0.45364713687815716 187 166 163
2.996890622440782 -0.02714342099167639 -0.6010007483725449 129 120 121
3.327341524561021 0.07171290952128523 -0.7580058795171587 80 108 153
2.801561855479553 0.516959791890803 0.022502310574664355 109 117 94
3.3386748818915364 0.5279021519620807 -0.0656041643209644 34 27 17
2.580005791654376 0.6725831087132056 0.17939465483185424 126 109 96
3.232153473103381 0.579892237114149 -0.17255223639750072 8 4 0
2.95196023971098 0.621580199899763 -0.24716760903417426 21 18 13
2.8955079013158906 0.631933591653354 -0.23016233580031772 28 25 18
2.7157057245369574 0.6860760879261791 -0.15230470970990062 125 68 48
2.7562718430963127 0.6790593354228156 -0.17623814222540884 184 80 87
3.1525422794614446 0.6414008297768103 -0.294277160140541 13 13 5
4.6780586079225674 0.7673176803414695 -0.09474483627918591 74 63 59
4.75968795896309 0.8257062727548425 -0.11472689372591222 98 84 75
3.008958053663592 0.7262957748658947 -0.3985023871271299 77 109 72
3.155059235543553 0.7279065783042293 -0.4102490131303884 18 21 10
4.777582133377341 0.8788283622399372 -0.14945229713854782 54 45 36
3.989630116907263 0.761077014235357 -0.4062130966491122 160 91 33
3.1970419644696184 0.7557746717146284 -0.45731081044888394 29 20 11
3.3165900908520483 0.7731409712982422 -0.5911698390793605 73 64 57
3.744870159332481 0.8059078935908036 -0.6248611452503787 46 51 19
3.4637536729643594 0.7903116724985019 -0.6848212551684325 17 7 2
2.7431641292747497 0.945345320848464 -0.4540114690899845 122 167 115
3.4325846862637195 0.8248656060435402 -0.7440386319705173 34 24 14
3.1497574634473944 0.8992003389703545 -0.6866306732937723 115 108 102
3.000085073116214 0.9542925529191111 -0.6621099828346896 91 113 84
3.323805983692219 0.9078195994917818 -0.8164883266117313 30 17 11
3.1148439187522383 0.9853608228725773 -0.7469439383325109 50 50 40
2.980713725860473 1.00814043201759 -0.7127629080069525 58 85 54
2.8876474389278526 1.1078226846105477 -0.7074714283961815 54 86 44
3.2225390934793925 1.0728800128974922 -0.8497609521181948 12 7 3
2.811002241812103 1.2070834270430577 -0.6503953544052093 69 81 57
2.827379146435845 1.2638099360966148 -0.6845175609219641 104 126 91
2.972330348690477 1.224533614342343 -0.7970849525845992 64 106 66
3.089483910585913 0.6744740295831082 -0.3535298705389135 38 57 35
3.0841717570689373 0.8771591038182238 -0.6228262065342174 88 100 80
2.9970289448628162 -0.02743620753336474 -0.6011270642056257 129 120 121
2.9821249821536275 0.6161173811295242 -0.25286815191433915 103 96 90
2.7167229398687236 0.6860597853738009 -0.15450593841239998 125 68 48
2.9510547997354166 0.6398386906145815 -0.2671677704876691 31 28 21
3.228084421784611 0.737156270869971 -0.42870351445274124 61 57 48
3.2711798292424255 0.8167529953961293 -0.6571295662165475 57 78 47
2.773908800039712 1.0104136830406296 -0.5554793776384699 200 99 79
2.804499402061237 1.1467748227132186 -0.6295961582772982 71 81 56
3.297080391344994 0.9889021874551321 -0.8645903890661286 13 4 1
2.8852136150996275 1.3793829302658638 -0.7567614944182339 149 188 145
2.31006208449607 -0.05806144595035232 -0.1520662474165698 59 63 75
2.861191702551825 0.6440265829311601 -0.22397918331205038 56 51 47
3.1674314194873516 0.625322428029235 -0.26468050446131036 71 60 58
2.5565955214353355 -0.05659134257445241 -0.35220804600206723 122 108 106
3.099565624482112 -0.09075643289649774 -0.40588131360533564 57 44 38
2.3063760199589405 -0.018173399019007046 -0.3066335565135013 144 163 193
4.306172146763868 0.19942859988716619 0.8374186120847851 62 60 38
4.729333456261921 0.8072905908262074 -0.12158249654355174 53 43 33
2.9489068119184103 0.635627179623496 -0.26601790696556016 18 13 7
2.7937439444342527 0.5290275575944033 0.011781968960617086 123 128 106
2.70664749356447 0.5686651916868712 0.06426919759380681 88 93 71
3.4911731401315236 0.5111756690263413 -0.054864285584247344 34 22 13
2.6390898718998352 0.6461104055771472 0.03562654548974773 94 116 78
2.914672205573897 0.6174936773941457 -0.2162818743103866 26 23 16
3.046842946915714 0.604213534498716 -0.24665744241676246 97 96 91
2.849337903817718 -0.16215127030645848 0.028027433020884014 137 108 97
3.3143895891991493 0.7398139335207996 -0.42240302565835347 127 116 114
2.6859512677517023 0.6469010377902306 -0.05093358483128892 96 113 79
3.046842946915714 0.604213534498716 -0.24665744241676246 97 96 91
3.2854550057538754 0.7191888959810437 -0.3787121692540682 25 21 9
3.0776840598316118 0.8779642243374295 -0.62406067366448 48 60 40
3.015891016434848 0.9390384322364859 -0.661553083031612 120 115 109
2.8077723408078565 1.1023970595213701 -0.6524174191782696 136 178 132
2.6774414448135473 0.8373152643532996 -0.27116891464478715 202 132 81
3.310790584154811 0.7708943238809987 -0.5825392184577852 26 20 10
2.6890273262664093 0.9332135574341858 -0.36953304930112923 185 139 108
3.1845639946207993 0.8377024256852506 -0.6146025876269894 116 142 105
3.3830323388463692 0.8756941011132674 -0.8002628503663871 85 85 71
3.3716607289592337 0.8863962013044575 -0.807283881548388 56 54 41
3.7840324672501757 0.8781754967887057 -0.7331218565491916 120 42 17
3.4119891825139717 0.8407762499772983 -0.7679819318859122 21 12 3
3.5265455836798876 0.8265572611615395 -0.723436480651096 57 46 42
3.7941943340371833 0.7593750684064112 -0.5307119210360127 188 88 62
2.8606544864893646 0.7929106261753192 -0.39810935187389984 97 134 91
3.2303356682382596 0.7521310549241604 -0.45997601404588034 35 22 14
4.469082090184715 0.7552098052177649 -0.18191063150904827 87 75 72
3.2544262252208513 0.6861112992595509 -0.3393365987898288 43 47 25
2.891444431348263 0.6779766616854221 -0.28911537260647635 33 26 20
2.790989246278225 0.6899368050156051 -0.2377231440465372 78 56 49
3.0176553086430644 0.6196728419348695 -0.26252160725640844 22 19 14
3.191721518893305 0.588155589360348 -0.1936643534490959 11 6 2
2.6922172608997452 0.5801001762766612 -0.057922401754478534 104 117 87
2.400355278334295 0.046454524767544116 -0.46389448326883465 77 101 137
2.366601817829754 -0.05754224935604512 -0.1921203240305678 57 46 42
2.7376300805960527 1.3071808233041686 -0.5897541187385748 116 100 94
2.881890440933635 0.8061113709165035 -0.4252228805266328 100 138 97
3.4190702324042226 0.75929139999164 -0.6048219969107442 22 13 6
2.8188279457628345 1.1977732527948424 -0.6814543889364254 101 155 100
2.9478447593105814 1.2140856176553374 -0.7829959008210542 117 163 116
3.198642566585476 0.817078100914432 -0.582765062733019 118 133 104
2.7133321434717375 0.6786283711722284 -0.15292530451925704 136 136 106
3.2781563001125793 0.5160068542006933 -0.05947988525698759 134 121 117
2.9840696055380347 0.601037379168661 -0.23309654633710886 180 172 171
3.323385119488311 0.7659295988377086 -0.5837539682087721 216 205 203
3.1902455552772286 0.9951323457299976 -0.7995180447487257 101 121 99
3.2325958452540147 0.7041737424525129 -0.3712866935187931 9 10 1
3.1387239757202265 1.2467596483633359 -0.8791105876662363 28 24 22
4.069129525700941 0.8925287143428432 -0.5990448437544437 44 28 13
1.7445696344477641 1.510992273918316 0.30076657778193105 34 33 29
1.7423786382971889 1.5130455009798605 0.30569232592764406 34 33 29
4.275560548255799 0.14092908430204443 0.9639057443020809 140 122 110
2.5813352433443546 -0.02497568073574407 -0.502464930388758 158 131 134
2.7587703086136584 -0.03553176243605143 -0.40430584227203525 57 48 41
4.91542183796536 0.361477034159471 0.7794682334883781 157 142 111
3.2514265442595462 0.8915575726889151 -0.7915313297596578 37 34 29
3.371592008606399 0.8070259158815155 -0.7122183406379115 34 31 24
4.446028614078525 0.17398674424443414 0.9470960143531852 52 42 33
2.9350317921128926 -0.03916611940176267 -0.5861459698113203 49 44 40
3.296379480491496 0.024325956739473933 -0.7363670155453844 48 43 37
3.371592008606399 0.8070259158815155 -0.7122183406379115 34 31 24
4.977464116670787 0.7406491391284472 0.18158269357750936 111 44 18
2.8701998939812627 0.9642739199530573 -0.5811683703356433 79 137 79
3.5694123641797613 1.0194746041576224 -0.837756401374242 28 28 18
2.927973897067352 0.8336268300840934 -0.4838993245492331 56 53 44
2.477934004425058 0.9807428610571569 -0.09876652630467304 231 190 134
4.801846892354829 0.7688136878530809 -0.035774294802018845 35 25 15
3.145341274183293 1.1252713013664466 -0.8383238803309359 43 42 37
3.682222204159772 0.7746603459027186 -0.5849440893985575 155 62 28
4.333006356624235 1.0781394111789941 -0.5692468890139909 41 42 24
4.320290544561647 0.27263931478815 0.7256180590672048 23 21 16
2.773416838187059 0.7711846441634675 -0.31966801013942553 200 96 67
3.6809205270585887 0.7732044161164114 -0.5871077109737016 155 62 28
3.3120084591380046 0.8211033435962543 -0.7001184213964021 43 40 33
2.543053537725269 -0.029388798358471475 -0.47209568511307676 56 49 41
2.9370154750051936 -0.08399142619813821 -0.44921703134423374 56 49 43
3.543487591391548 0.7891837725457561 -0.6889495239797259 32 22 12
4.71497670989562 0.15595596514202056 1.1388325043765724 87 52 17
4.575267341903935 0.44465345005283796 0.863378295937977 39 32 16
4.104480246822886 0.2224134597887049 0.6857273953145069 32 22 10
2.5943766769953567 -0.05348498213905404 -0.45906544947231165 159 129 119
3.083594751151479 0.6620750726947229 -0.3344313603969637 31 50 30
3.217621309485607 0.7228305409777072 -0.4113392020351388 25 24 19
4.604975973659957 0.7775565689680812 -0.15457365528676656 35 33 21
3.0829570620918876 0.6583891302366212 -0.3406639349140984 31 50 30
4.160770356485949 0.16568439638751042 0.8062452182452531 56 84 39
4.919111618387778 0.6905524956600503 0.23317331682869863 132 52 31
3.1989204528210484 0.6577028157375535 -0.3037696274638753 19 18 13
4.558591311527656 0.7841574740647139 -0.166081484024523 35 31 20
3.3463688639701448 0.7498117890938216 -0.5668721555366234 41 34 26
3.139330707208272 0.818667755607376 -0.5558434704292481 39 35 26
3.207405621059481 0.8083949092860713 -0.5807227137156015 81 94 72
3.458588753899566 0.7743285610413879 -0.6604368818431852 147 131 118
3.4097310723862875 0.7186272117495418 -0.49614465910806027 38 29 22
3.139445875842953 0.819468911371589 -0.5548242330192126 39 35 26
3.34639878704794 0.7498292551300921 -0.566777369132137 41 34 26
3.5987531037115654 0.7142755445110538 -0.484288330292181 162 67 35
3.4097310723862875 0.7186272117495418 -0.49614465910806027 38 29 22
3.4148906404267376 0.891125649762457 -0.8156105827440969 44 65 32
2.368582605892592 -0.12407105012389866 0.038193035317834086 65 59 61
3.1423009966239612 1.3452445537294562 -0.8839261281167887 64 77 57
3.1602427070884462 1.334906219546147 -0.8732353747176804 42 46 31
3.299815592841472 1.2451891035656155 -0.9110548348601746 41 36 32
3.8837152304092104 1.1113683765122544 -0.733762509035526 43 42 21
3.4511336608789955 0.92119859768867 -0.8221182046556801 30 31 17
3.5353360863288223 0.8573351277011384 -0.7581114238279881 44 83 30
3.0452729025569014 0.8455668927443541 -0.5449807007724231 43 38 32
3.432225815971571 0.7447697919007087 -0.5901212627077149 35 26 19
4.673460502910234 0.8508573171933378 -0.17744122811567453 27 23 12
4.632792200061365 0.7506057681160482 0.023948092450702698 122 110 96
3.4828751972609777 0.08816079916482819 -0.8180931573835657 61 89 136
4.473309896644328 0.330821886389388 0.7580502796492622 33 29 20
2.483315349960795 -0.03680718904695807 -0.3980269848573143 74 66 63
2.9623738781353968 -0.09369102371678015 -0.41089605860206907 127 109 105
2.3988373252521673 -0.03677395973945254 -0.3075584523454581 84 75 72
4.101717627054324 0.1750071525995454 0.7687605128730426 54 75 38
3.57588330931614 0.6990131589344578 -0.4659210447097989 155 35 26
3.4321181322850376 0.7444874637535086 -0.5904375430778654 35 26 19
3.251170101753453 1.136091150970045 -0.8782155059056331 182 165 155
3.28001763073741 1.1491701328274975 -0.8815217904193006 33 30 23
3.2147051016081134 -0.03701430221785993 -0.628171061488497 202 187 180
2.5702996731183108 0.7399749840143927 -0.020247904937627726 214 129 92
2.629109906819571 0.7061266624439728 -0.09228854257862139 102 79 73
2.8648081369994705 0.6757826250806768 -0.2752146834147854 52 49 42
3.5737855411812616 0.7409309290793349 -0.2059441394370777 48 73 33
3.3201113897240666 0.7367860790642713 -0.4435168259306722 51 44 36
3.741090852490744 0.72108192099194 -0.4500104033786567 147 48 19
3.6542057993490253 0.7899131668614344 -0.6307541651596245 157 58 27
4.077638641671963 1.0315932441166586 -0.67120715330196 153 134 120
3.3102966425302154 1.3101232829322025 -0.9008566688827522 157 143 134
3.1487449998952766 0.9923635213184129 -0.7853171688257984 69 75 63
2.3216914377107525 -0.06360243207012423 -0.13895698869507053 208 197 193
2.7022381521047056 -0.09734101983322918 -0.2312761324400173 206 195 193
2.528803204699757 0.7757408084436925 0.06069451189367017 218 128 93
2.8297687418827917 0.6904805037020775 -0.2661976976960794 63 54 49
3.3201113897240666 0.7367860790642713 -0.4435168259306722 51 44 36
2.8034858913509297 1.0562882329586076 -0.6224757883277898 208 198 189
4.005473696266264 0.9709764734395925 -0.7041808118909424 65 38 24
4.09003665469737 1.006340236366991 -0.6865673736320325 53 46 27
3.3102966425302154 1.3101232829322025 -0.9008566688827522 157 143 134
2.9487951299194473 1.4361143222375798 -0.8082254619344353 59 63 48
1.9015978465213381 -0.05490599041673267 1.3024300544339549 79 75 72
2.5651413101216023 -0.1718004886189073 0.13875641743586095 61 52 47
2.3466097283576546 -0.10193794466203404 -0.016945759396989026 68 63 64
2.3036320733716225 -0.07288707959858973 -0.08182043021840157 88 109 139
3.338536758645029 -0.09828040406164834 -0.13398255676623894 69 57 48
3.2348207772843947 1.080301521737763 -0.8557029011914208 184 170 159
4.3807424979927605 0.3244810039306704 0.7390069249156167 26 22 11
4.319136968388208 0.3328232797511846 0.7363918177679709 28 25 16
4.406523533607649 0.3247105967160735 0.7384232413640144 33 26 16
4.639755932193199 0.7667587037911405 -0.10863049987076391 44 35 27
3.5216059968602536 0.7391231924810819 -0.23744651024042845 109 101 86
3.3306644938944188 0.10813856315856654 -0.765441362281887 65 101 151
3.498262886102184 0.6924053275531767 -0.4543804273043568 153 35 21
3.4489475305972217 0.7039986664777871 -0.44025666880053427 151 137 126
3.3654771866644326 0.7231125082568904 -0.4833897660220051 174 161 153
3.4675561353533526 0.7031085835037807 -0.4321052000801091 35 26 17
